# .PCD v0.7 - Point Cloud Data file format
VERSION 0.7
FIELDS x y z
SIZE 4 4 4
TYPE F F F
COUNT 1 1 1
WIDTH 1463
HEIGHT 1
VIEWPOINT 0 0 0 1 0 0 0
POINTS 1463
DATA ascii
-0.22794801 0.24845202 1.0860564
-0.24743006 0.2393098 1.1056261
-0.25056955 0.2419704 1.0979166
-0.24681395 0.24367702 1.0942905
-0.23195463 0.24846368 1.0851096
-0.24415018 0.24479038 1.0919739
-0.23188697 0.24952501 1.0823359
-0.22173621 0.24838558 1.0876514
-0.22507456 0.2483591 1.0869576
-0.26507714 0.23456115 1.1140697
-0.26943681 0.23538393 1.1109107
-0.26061672 0.23749235 1.1073867
-0.26287186 0.23843971 1.1043817
-0.26044005 0.23845288 1.1049031
-0.25481316 0.24070384 1.1002744
-0.25187019 0.24185452 1.0979236
-0.24636222 0.24388622 1.0938441
-0.24048254 0.24617541 1.0891728
-0.23508431 0.24741951 1.0871379
-0.22640568 0.24824908 1.0869424
-0.28434089 0.22820368 1.1263714
-0.2754367 0.22984776 1.124087
-0.28364766 0.22940287 1.1233786
-0.27594012 0.23196191 1.1184162
-0.27299392 0.23309058 1.1161239
-0.26887637 0.23534608 1.1111383
-0.26637387 0.23650806 1.108657
-0.25804251 0.23951471 1.102661
-0.25480747 0.24068448 1.1003267
-0.25115669 0.24163043 1.0986757
-0.24149907 0.24480319 1.0925463
-0.23813355 0.24583128 1.0906143
-0.223674 0.24742793 1.0897248
-0.23565906 0.24646372 1.0895182
-0.23290534 0.2479073 1.0863543
-0.29083624 0.22396958 1.1360128
-0.27531129 0.22641809 1.1331284
-0.29002482 0.22565956 1.1317573
-0.28159642 0.22926646 1.1242062
-0.27638745 0.23159207 1.1192858
-0.27341652 0.23319814 1.1157446
-0.26301029 0.23822214 1.1049217
-0.26431483 0.23698938 1.1078629
-0.25801867 0.23900005 1.1040189
-0.25411493 0.24007414 1.1020888
-0.24826881 0.2426841 1.096567
-0.24881673 0.24204499 1.0981213
-0.24202175 0.24478573 1.0924728
-0.22524691 0.24815975 1.087442
-0.23903225 0.2462835 1.0892204
-0.23312649 0.24708752 1.0884581
-0.30012462 0.21975239 1.1449711
-0.29521605 0.22119638 1.1422989
-0.29524124 0.22182162 1.14065
-0.29225513 0.22425707 1.1349328
-0.28372291 0.22890776 1.1246624
-0.28000367 0.23016965 1.1221969
-0.27536342 0.23148696 1.1197962
-0.27026814 0.23413412 1.114005
-0.26395485 0.23682611 1.1083744
-0.24649742 0.24285531 1.0965222
-0.2425351 0.24431787 1.0935849
-0.23273903 0.24661885 1.0897782
-0.22299396 0.24743557 1.0898603
-0.31568849 0.21356998 1.1576588
-0.30562165 0.21559572 1.1546372
-0.3136889 0.21514553 1.1539757
-0.30590838 0.21814844 1.1478635
-0.30312395 0.21966885 1.1445049
-0.29966137 0.22120142 1.1412692
-0.29726294 0.22261229 1.13811
-0.29052475 0.22561073 1.1317713
-0.2865231 0.2270717 1.1288471
-0.28321931 0.22837317 1.1261824
-0.27998242 0.22914676 1.1248897
-0.27242467 0.23204844 1.1189926
-0.26925859 0.23416159 1.1141635
-0.26456952 0.23530978 1.1122185
-0.25627634 0.23791175 1.1072773
-0.26091275 0.23671915 1.109351
-0.25268805 0.23954964 1.1037936
-0.25023043 0.24040323 1.1021123
-0.24739914 0.24214721 1.0981767
-0.24346237 0.24326858 1.0961303
-0.23155864 0.24647275 1.090432
-0.22969082 0.24680515 1.0899856
-0.32179108 0.21015114 1.1652477
-0.32056478 0.21194182 1.1608224
-0.31775951 0.2135396 1.1572651
-0.31222472 0.21639189 1.1510352
-0.30671147 0.21807235 1.1478798
-0.30465159 0.21945938 1.1447059
-0.29362515 0.22355616 1.1364615
-0.2899504 0.22508594 1.1332817
-0.28565973 0.22641096 1.1307808
-0.2831848 0.22731206 1.128979
-0.27665946 0.23068208 1.1216149
-0.27430823 0.2319766 1.1187507
-0.27152565 0.23219649 1.1188092
-0.268814 0.23351575 1.1159624
-0.2592822 0.23767896 1.1072017
-0.26520312 0.23503648 1.1127918
-0.2495245 0.24046452 1.1021127
-0.24592222 0.24176259 1.0995253
-0.23933414 0.24477991 1.0931026
-0.22886433 0.24766557 1.0879135
-0.22807537 0.24794699 1.0873544
-0.22645712 0.24693415 1.090386
-0.33157945 0.20577274 1.1745152
-0.31998754 0.2075959 1.172375
-0.33200097 0.20715572 1.1707846
-0.32794273 0.20846842 1.168263
-0.31527478 0.21489501 1.1542715
-0.31302822 0.21617763 1.1514145
-0.30840433 0.21787016 1.1480241
-0.30028701 0.2204079 1.1432115
-0.29624397 0.2219263 1.1401458
-0.29264227 0.22329813 1.1373644
-0.2905378 0.22455347 1.1345466
-0.28794152 0.22569779 1.1321332
-0.28049254 0.22873566 1.1258534
-0.27679294 0.23032418 1.122525
-0.2729829 0.23164797 1.1199174
-0.27008471 0.23292838 1.1172154
-0.26118708 0.23643829 1.1100264
-0.25855297 0.23752341 1.1077771
-0.25518703 0.23814693 1.1069082
-0.24321471 0.24273065 1.0976005
-0.23918286 0.24398766 1.0952191
-0.23711421 0.24487521 1.0933598
-0.22684824 0.24659947 1.0911762
-0.34636208 0.19957404 1.1874244
-0.33515912 0.20139928 1.1851895
-0.34167743 0.20306079 1.1793329
-0.34257573 0.20332059 1.1784447
-0.33500573 0.20581006 1.1736338
-0.33948606 0.20531309 1.1739153
-0.33222795 0.20688073 1.1714554
-0.32834819 0.2092635 1.1660808
-0.32135051 0.21215439 1.1600842
-0.32518238 0.21096855 1.1623242
-0.31934232 0.21332213 1.1574746
-0.32250476 0.21192172 1.1604316
-0.31468707 0.2145924 1.1552011
-0.30677259 0.2170915 1.1504434
-0.30754322 0.21727899 1.1497744
-0.30055788 0.22007094 1.144035
-0.30380177 0.21923256 1.1454964
-0.29725674 0.22163591 1.1406773
-0.29293692 0.22332881 1.1372163
-0.28947598 0.22503507 1.1335238
-0.28354266 0.22753492 1.1283114
-0.2861937 0.22627808 1.1310079
-0.27998376 0.22862418 1.1262627
-0.27605224 0.23017676 1.1230818
-0.26861611 0.23308194 1.1171476
-0.2687636 0.23331264 1.1165076
-0.26131818 0.23586513 1.1115025
-0.25865945 0.23669744 1.1099232
-0.24951181 0.23974724 1.1040006
-0.25249791 0.23860686 1.1063144
-0.24645385 0.24098071 1.1014584
-0.24621245 0.2412276 1.1008646
-0.35092595 0.19593611 1.1959407
-0.35232192 0.19784246 1.190612
-0.3494902 0.19976705 1.1862019
-0.34603152 0.20171258 1.1818801
-0.33569852 0.20608661 1.1727486
-0.33277732 0.20700003 1.1710162
-0.32898736 0.20841491 1.1681647
-0.31688997 0.21304101 1.1587741
-0.31444165 0.21407211 1.1566244
-0.31068194 0.21539193 1.1540158
-0.30021617 0.22033121 1.1434292
-0.29637948 0.22170164 1.1407051
-0.2930856 0.22308367 1.1378266
-0.28105265 0.22797611 1.1277213
-0.27850068 0.22879721 1.1261472
-0.27489173 0.22990119 1.1240712
-0.25895503 0.23534428 1.1134117
-0.25941101 0.2362961 1.1108061
-0.36206385 0.19131604 1.2055349
-0.36184511 0.19329107 1.2003949
-0.35983029 0.1949814 1.1964136
-0.35684025 0.19684701 1.1921948
-0.35620227 0.19806194 1.1891479
-0.34399256 0.20232873 1.1807271
-0.34060818 0.20338483 1.1787258
-0.3365289 0.20514441 1.1750346
-0.32525334 0.20952275 1.1661073
-0.32337496 0.2105208 1.163914
-0.31839177 0.21227355 1.1604475
-0.30801892 0.21663086 1.151369
-0.30404103 0.21824293 1.1480422
-0.30110279 0.21977922 1.1446769
-0.29047543 0.22401667 1.1359715
-0.28684124 0.22520998 1.1336666
-0.28321216 0.22668746 1.1306139
-0.27229887 0.23102418 1.121713
-0.26872048 0.23215801 1.1195518
-0.36548543 0.18791594 1.2136875
-0.37596908 0.18603532 1.2162324
-0.37266976 0.18910226 1.2089273
-0.3711392 0.18932372 1.2086953
-0.36624548 0.19194955 1.2029141
-0.36959976 0.19113037 1.2042997
-0.36366805 0.19381967 1.198589
-0.36116755 0.19522136 1.1954772
-0.35715285 0.19646479 1.1931278
-0.35158092 0.19895414 1.18786
-0.34906742 0.19949485 1.1870139
-0.3466278 0.20066558 1.1844953
-0.33480614 0.20500526 1.1757944
-0.33444762 0.20532456 1.1750371
-0.33488628 0.20555159 1.1743401
-0.32898772 0.20848492 1.1679807
-0.33228892 0.20667282 1.1719878
-0.32456332 0.20959978 1.1660627
-0.32102469 0.2109236 1.1633929
-0.31652874 0.21229829 1.1608086
-0.31459886 0.21350488 1.1580789
-0.31770521 0.21211576 1.1610191
-0.31084609 0.21505839 1.1548547
-0.31471783 0.21373083 1.1574581
-0.30739075 0.21701334 1.1505075
-0.3031159 0.21890143 1.1465234
-0.30027857 0.21964532 1.1452173
-0.29320323 0.22259307 1.1390889
-0.29635829 0.22098392 1.142596
-0.28928491 0.2236262 1.13727
-0.28345516 0.22565132 1.1332812
-0.28231043 0.22657122 1.1311257
-0.27497444 0.22968006 1.1246334
-0.38001075 0.1814869 1.2272608
-0.38246831 0.18492579 1.217662
-0.37804672 0.18702377 1.2131597
-0.37642297 0.18843326 1.2098271
-0.36666259 0.19250631 1.2013556
-0.36317274 0.19384298 1.1986409
-0.35875508 0.19481833 1.1970879
-0.34743321 0.19968426 1.1868899
-0.34405211 0.20063546 1.1851634
-0.34178171 0.20164844 1.1830206
-0.33933628 0.2032516 1.1793667
-0.33027059 0.2069899 1.1716161
-0.32749265 0.20828608 1.1688451
-0.32360139 0.21013597 1.1648736
-0.32112965 0.21119331 1.1626601
-0.30944496 0.21562499 1.1536862
-0.30607533 0.21690571 1.1510911
-0.30348453 0.21803313 1.1487207
-0.2936469 0.22116561 1.1427386
-0.29050145 0.22217704 1.1408
-0.39319748 0.17723818 1.2354106
-0.39422902 0.17893963 1.2307035
-0.39272085 0.18109509 1.2253841
-0.38831499 0.18285725 1.2217609
-0.3854439 0.18470655 1.2175577
-0.38001549 0.18738346 1.2117643
-0.37252888 0.19006202 1.2064375
-0.36756173 0.19147649 1.203856
-0.3575325 0.19582075 1.1947333
-0.35212386 0.1967428 1.193547
-0.34885913 0.19826171 1.190302
-0.34737873 0.19977227 1.186671
-0.33616087 0.20440193 1.17707
-0.33441079 0.20591956 1.1734821
-0.32987005 0.20744209 1.1705192
-0.32780862 0.20879807 1.1674273
-0.31870949 0.21172418 1.1618185
-0.31440902 0.21299158 1.1594713
-0.31191885 0.21447009 1.1561553
-0.31087586 0.21591021 1.1526095
-0.30056673 0.21858607 1.1479349
-0.40409127 0.17331666 1.2432249
-0.40759355 0.17368707 1.2414507
-0.40462145 0.17548771 1.2373985
-0.40163782 0.17657062 1.2352349
-0.39659035 0.17857271 1.2311279
-0.3933399 0.18015973 1.2277006
-0.38933 0.18230796 1.2229723
-0.3841759 0.18448764 1.2184228
-0.37723443 0.1869843 1.2134494
-0.37519491 0.18765634 1.2121496
-0.36973351 0.19007814 1.2070342
-0.36488074 0.19161062 1.2041167
-0.35928747 0.19360238 1.2001616
-0.35642415 0.1949732 1.197214
-0.35224855 0.19663127 1.1938117
-0.34867978 0.19845346 1.1898392
-0.34260967 0.20139363 1.1835009
-0.34696552 0.19991903 1.1863799
-0.34193036 0.20228492 1.181314
-0.33658725 0.20409872 1.1777693
-0.33079457 0.20618364 1.1736149
-0.32574958 0.20807616 1.1697952
-0.32134062 0.20958072 1.1668496
-0.31860372 0.21072139 1.1644779
-0.31383035 0.21276753 1.1601925
-0.30544695 0.21577795 1.1541984
-0.41466931 0.17019485 1.2490098
-0.41139191 0.17198807 1.2450467
-0.40718186 0.1740393 1.2406191
-0.40456018 0.17582409 1.2365284
-0.39898422 0.17817894 1.2316152
-0.39145204 0.18087751 1.226246
-0.38640767 0.18259685 1.2228813
-0.38157415 0.18509051 1.2174335
-0.38373694 0.18423451 1.2191885
-0.37711039 0.18627056 1.2153533
-0.37224516 0.18792963 1.2121059
-0.36954033 0.18908066 1.2096996
-0.36294079 0.19218996 1.2030379
-0.35799456 0.19346924 1.2008071
-0.35618395 0.19496037 1.1973026
-0.35311139 0.19632345 1.1944233
-0.34798086 0.19839324 1.1901572
-0.34323171 0.20117313 1.183938
-0.34146515 0.20108749 1.1845671
-0.33812216 0.20208012 1.1827229
-0.33404082 0.20388855 1.1789038
-0.32476383 0.20798275 1.1702662
-0.3293559 0.20537311 1.1760739
-0.32170516 0.2085284 1.1695316
-0.44240949 0.1616191 1.2652025
-0.44883248 0.16042718 1.266866
-0.42140448 0.16584668 1.2588961
-0.42012528 0.16800034 1.2535291
-0.41836315 0.16892686 1.2514973
-0.41477129 0.17092437 1.2470694
-0.41283637 0.17283751 1.2424843
-0.40952432 0.17438245 1.2391818
-0.39901128 0.17770313 1.2328594
-0.39143515 0.18079773 1.2264595
-0.38086194 0.18557769 1.2163161
-0.37363222 0.18667194 1.2150936
-0.36440384 0.19090641 1.2060764
-0.36205816 0.19239317 1.2027057
-0.35867918 0.19391395 1.1994818
-0.35579062 0.19439568 1.1988765
-0.34410357 0.19965149 1.1877373
-0.34000444 0.20079984 1.1856569
-0.33803746 0.20090742 1.1858239
-0.33634564 0.20202029 1.1832863
-0.4384214 0.15945922 1.2717904
-0.42560801 0.16163149 1.2690117
-0.44823614 0.16005392 1.2679834
-0.43806872 0.16127183 1.2671078
-0.44935647 0.16010895 1.2675827
-0.43297693 0.1628283 1.2641819
-0.43290609 0.16297123 1.2638224
-0.42440462 0.16626042 1.2571229
-0.42932263 0.16498464 1.2593508
-0.42216292 0.16805446 1.2529209
-0.42847669 0.16646613 1.2556511
-0.41993806 0.1691777 1.2504779
-0.41648832 0.17107812 1.2462727
-0.41086257 0.17253384 1.2437338
-0.40420765 0.17525308 1.2381096
-0.40059564 0.17606694 1.2367969
-0.39618054 0.17753255 1.233955
-0.3937856 0.17873976 1.2313302
-0.38557622 0.1825086 1.2233033
-0.38332397 0.18330301 1.2217308
-0.38002115 0.18411855 1.2203429
-0.37225974 0.18727465 1.2138238
-0.37585115 0.18637402 1.2153692
-0.37144116 0.18839474 1.2110676
-0.3655571 0.19062063 1.2065637
-0.36230633 0.19189246 1.2039648
-0.35871068 0.19323929 1.2012477
-0.35085651 0.19636178 1.1948382
-0.35508028 0.1950599 1.1972934
-0.34676546 0.19768129 1.192306
-0.34407958 0.1988043 1.1899691
-0.45701784 0.15537837 1.278262
-0.45167512 0.15724361 1.2745821
-0.44143859 0.15966222 1.2705671
-0.44629917 0.15813997 1.2734559
-0.43822992 0.16020331 1.2698789
-0.43641511 0.16162251 1.2665644
-0.43226984 0.16352457 1.2625138
-0.42296892 0.16747364 1.2542629
-0.41829237 0.16834897 1.253032
-0.41402137 0.17004353 1.2495556
-0.40559256 0.17376858 1.241694
-0.40305695 0.17426559 1.2409676
-0.39717698 0.17707987 1.2349167
-0.38878697 0.18073688 1.2272251
-0.38553357 0.18181725 1.2251297
-0.3830927 0.18317272 1.222126
-0.37921935 0.18480292 1.2187278
-0.37556475 0.18603249 1.2163322
-0.36848435 0.18933676 1.2092681
-0.36570799 0.19056992 1.2066624
-0.36238873 0.19172928 1.2043748
-0.35515538 0.19440766 1.1989902
-0.46095341 0.15363871 1.2819337
-0.45010671 0.15605348 1.2780683
-0.44720832 0.15759695 1.2746749
-0.44451484 0.1594798 1.2703429
-0.44389784 0.16142944 1.2653607
-0.43860537 0.16055205 1.2688764
-0.43638736 0.16210294 1.2653083
-0.42921036 0.1649251 1.259533
-0.422212 0.16579641 1.2588435
-0.42104626 0.16689178 1.2562315
-0.41358384 0.17029829 1.2489861
-0.40070945 0.1748278 1.240027
-0.4021053 0.17451596 1.2405274
-0.39900795 0.17591909 1.2375484
-0.39171833 0.17900899 1.2310953
-0.38978484 0.18025218 1.2282705
-0.38485876 0.18201129 1.2247742
-0.38231739 0.18312138 1.2224382
-0.37303534 0.18738349 1.2133604
-0.36958459 0.18923765 1.209277
-0.44574097 0.15774846 1.2746124
-0.44278723 0.16050738 1.2680377
-0.43070909 0.16289088 1.2645359
-0.42597041 0.16428371 1.2619593
-0.4236398 0.16575794 1.2586182
-0.42273456 0.16660538 1.2565981
-0.41314968 0.16994257 1.2500203
-0.40986472 0.17182225 1.2458318
-0.40702116 0.17288931 1.243678
-0.40310729 0.17428108 1.2409155
-0.39644307 0.17705919 1.2351389
-0.39191842 0.17911614 1.230768
-0.38860872 0.18047665 1.2279496
-0.38563827 0.18182273 1.2250915
-0.37969828 0.18436173 1.2197776
-0.37557378 0.18589239 1.2166984
-0.44230989 0.15910122 1.271842
-0.43502381 0.15998338 1.2711899
-0.44282588 0.15855047 1.2731714
-0.4338235 0.16066602 1.2696705
-0.43149322 0.16259621 1.2651309
-0.42863813 0.16391236 1.2623252
-0.42457208 0.16500524 1.260383
-0.41802108 0.16806519 1.25384
-0.4133701 0.1699474 1.2499571
-0.40947777 0.17139044 1.2470549
-0.40602678 0.17271279 1.244369
-0.39846346 0.17551672 1.2387303
-0.39624661 0.17666328 1.2362242
-0.39272004 0.17805311 1.2333783
-0.38910198 0.17964232 1.2300293
-0.44329673 0.15758966 1.2755885
-0.44403598 0.15714101 1.2765985
-0.43668512 0.16188586 1.2658105
-0.43123648 0.16179547 1.2672939
-0.42047349 0.16641927 1.2576044
-0.41667455 0.16823141 1.2537109
-0.41377512 0.1688659 1.2527065
-0.40246594 0.17364004 1.2427466
-0.39979562 0.17464527 1.2407157
-0.44283897 0.15626355 1.2791781
-0.44010961 0.15909091 1.2723722
-0.43756923 0.16022107 1.2699833
-0.42723891 0.16326489 1.2643465
-0.4343555 0.16135946 1.2677265
-0.42514443 0.16414784 1.2625053
-0.42289233 0.1651406 1.2604113
-0.41679922 0.16724411 1.2562768
-0.40944368 0.1700743 1.2505215
-0.41387197 0.16892545 1.252528
-0.40544897 0.17159893 1.2474284
-0.4433375 0.15828475 1.2737525
-0.43779469 0.15965122 1.2714291
-0.43700483 0.16011944 1.2703793
-0.42750895 0.16288337 1.2652873
-0.42438087 0.16413262 1.2627198
-0.4206281 0.16599461 1.2586848
-0.44656125 0.1566878 1.2772121
-0.43254086 0.16108386 1.2688656
-0.42820936 0.16248691 1.2661691
-0.43901682 0.15635403 1.2798142
-0.22912855 0.25615922 1.0841622
-0.22842124 0.25365633 1.083761
-0.22278351 0.25002483 1.0881488
-0.23232119 0.26492116 1.0847952
-0.22340243 0.26152158 1.0928273
-0.23292978 0.27947417 1.0909059
-0.228284 0.27641112 1.094489
-0.22546141 0.25194797 1.0861568
-0.23241091 0.26911706 1.0866495
-0.23362534 0.28287026 1.0917352
-0.23192853 0.29116654 1.0974215
-0.23470733 0.29690465 1.0970945
-0.2340287 0.29948878 1.0990275
-0.22596665 0.2946797 1.1054808
-0.22890089 0.30633315 1.1077368
-0.22942002 0.25010672 1.0810339
-0.23413163 0.26176414 1.0813761
-0.23141865 0.25818709 1.0826368
-0.23534144 0.27355218 1.0855531
-0.23528133 0.29030785 1.0934085
-0.23449171 0.28440329 1.0915142
-0.23522197 0.29559481 1.0959308
-0.23643965 0.31675485 1.1044569
-0.23542002 0.30927366 1.1020775
-0.23475887 0.31994757 1.107753
-0.23066892 0.31986675 1.1121237
-0.23273762 0.25540134 1.0799201
-0.22920704 0.25023514 1.0813233
-0.23474875 0.26491567 1.0821762
-0.23357981 0.2644597 1.0832242
-0.23452398 0.27862826 1.0887942
-0.23613615 0.29073367 1.0926852
-0.23728631 0.30361307 1.097434
-0.23629273 0.30240372 1.0979426
-0.23701443 0.31529978 1.103161
-0.23718521 0.32826427 1.1090049
-0.23557286 0.32646516 1.1099062
-0.23606256 0.33985248 1.1156029
-0.23042345 0.3503882 1.1265795
-0.23656783 0.3534981 1.1214031
-0.237821 0.36478651 1.125301
-0.23085679 0.25552699 1.0820056
-0.22404103 0.24545905 1.0846705
-0.23403929 0.27194521 1.0862094
-0.23484217 0.28323764 1.0905946
-0.23596522 0.29620546 1.0954136
-0.23734888 0.30796084 1.0993881
-0.23872277 0.3170757 1.1021454
-0.23930676 0.33507919 1.1098868
-0.23810449 0.3330349 1.1102322
-0.23834415 0.3465493 1.1162577
-0.23772757 0.33838668 1.1131269
-0.23879661 0.35792959 1.1210613
-0.23859176 0.35948989 1.1220076
-0.2332276 0.36075136 1.1283758
-0.23983197 0.37143889 1.1262268
-0.23834649 0.38312319 1.1332605
-0.23021114 0.24999164 1.0801278
-0.22949207 0.25308701 1.0823421
-0.23191807 0.27190509 1.088477
-0.23473907 0.28742358 1.092652
-0.23675978 0.29691324 1.0948863
-0.23739198 0.31072518 1.1006271
-0.23777667 0.32732618 1.1079311
-0.23782963 0.3211852 1.1050189
-0.23972455 0.34546152 1.114264
-0.23958494 0.37092412 1.1262537
-0.2404024 0.38542187 1.1321135
-0.2388034 0.39923987 1.1402618
-0.23356327 0.39321545 1.1431084
-0.23140298 0.25358689 1.0805149
-0.22778213 0.24946509 1.0825011
-0.23332796 0.26532993 1.0839002
-0.23269328 0.26451638 1.084206
-0.23408487 0.27643096 1.0882459
-0.23520975 0.28985062 1.0932733
-0.23673663 0.30240744 1.097466
-0.23673457 0.30173829 1.097157
-0.23738903 0.31457534 1.1024203
-0.23824671 0.32743561 1.1074755
-0.23837872 0.33977473 1.1130705
-0.23770943 0.33859783 1.1132445
-0.23990107 0.35315028 1.1176487
-0.23966017 0.36533794 1.1235752
-0.23805593 0.36316493 1.1242939
-0.24047485 0.37845904 1.128798
-0.2392779 0.37692994 1.1293771
-0.24006648 0.39021757 1.1347053
-0.24180235 0.40293425 1.1387471
-0.24201395 0.41556752 1.1443931
-0.23901828 0.41285414 1.1463603
-0.23952672 0.42709547 1.152434
-0.23042238 0.25395629 1.0817436
-0.23345569 0.26992047 1.085897
-0.23505047 0.28316364 1.0903356
-0.23510414 0.27683035 1.0873331
-0.23562506 0.29541701 1.0954137
-0.23726761 0.30730486 1.0991707
-0.23687685 0.31494164 1.1031427
-0.23832271 0.33383831 1.1103705
-0.2385534 0.34590349 1.1157317
-0.23928861 0.35788372 1.1205097
-0.2396601 0.35402733 1.1183163
-0.24065158 0.36168882 1.1208099
-0.24010555 0.37169069 1.1260488
-0.24119629 0.38276654 1.1300231
-0.24184257 0.39097553 1.1331434
-0.24223767 0.39645177 1.1352639
-0.24231705 0.42158008 1.146862
-0.24293226 0.43373489 1.1518506
-0.24266629 0.42846552 1.1496871
-0.24132116 0.44057044 1.1567653
-0.24186614 0.44824636 1.1597468
-0.24027964 0.45760882 1.16581
-0.23006055 0.25088921 1.0807074
-0.22531196 0.24757721 1.0842856
-0.23282838 0.25840235 1.0812175
-0.23322359 0.27097037 1.0866354
-0.23647934 0.29608119 1.0948019
-0.237977 0.30930424 1.0993359
-0.23843968 0.320512 1.1040483
-0.23707303 0.3210001 1.1057483
-0.23775783 0.33355373 1.1108471
-0.23861426 0.34740201 1.1163629
-0.24011438 0.36007258 1.1206374
-0.24080467 0.36836195 1.1237476
-0.24078095 0.3719503 1.1254417
-0.24174266 0.38419369 1.1300979
-0.24240872 0.39805025 1.1358227
-0.24320206 0.40752861 1.1393747
-0.2428059 0.40933034 1.1406395
-0.24379556 0.42249957 1.145696
-0.24359614 0.43425301 1.1513758
-0.24366719 0.44629541 1.1568985
-0.24412645 0.46036994 1.1629475
-0.24485862 0.46958002 1.1664408
-0.24126646 0.47225183 1.1715549
-0.23064971 0.25314566 1.0811217
-0.22615871 0.25008518 1.0845392
-0.23340484 0.26280794 1.0826447
-0.23546854 0.27694181 1.0869921
-0.23418564 0.27525946 1.0875926
-0.23745519 0.29045731 1.091135
-0.23517965 0.28976563 1.0932662
-0.23709229 0.30166787 1.0967387
-0.23715892 0.30550152 1.0984493
-0.23863794 0.31516302 1.1013474
-0.23830236 0.31460553 1.1014501
-0.2392073 0.32574761 1.1056553
-0.2382652 0.32698941 1.1072482
-0.23791412 0.33893299 1.1131798
-0.23973599 0.35226762 1.1174163
-0.23924813 0.3509399 1.1173247
-0.24120043 0.36485133 1.1216887
-0.24054065 0.36467665 1.1223187
-0.24128753 0.37710428 1.127292
-0.24266323 0.3906697 1.1321168
-0.24237576 0.38895038 1.1316272
-0.24339801 0.40285563 1.1369908
-0.2428315 0.40232024 1.1373525
-0.24359934 0.41450095 1.1421884
-0.24385945 0.42362985 1.1461526
-0.24558353 0.43960029 1.15172
-0.24463256 0.43998417 1.1529235
-0.24516495 0.4519873 1.1579307
-0.24385121 0.45212901 1.1594125
-0.24516299 0.4651688 1.1640618
-0.24472085 0.46447161 1.1642141
-0.24582747 0.47553045 1.1681633
-0.22827348 0.25145423 1.0828964
-0.23308915 0.26798773 1.0853933
-0.23516265 0.28180051 1.089581
-0.23681346 0.29471457 1.0938063
-0.23762374 0.30724666 1.0987599
-0.23812822 0.31947809 1.1039033
-0.23885459 0.33240938 1.1091328
-0.23880188 0.34316108 1.1141888
-0.23990303 0.35722148 1.1195397
-0.24053578 0.3703745 1.1249733
-0.24185482 0.38066316 1.1283355
-0.24249801 0.3936635 1.1336869
-0.24357007 0.40771273 1.1390636
-0.24420111 0.42185661 1.14496
-0.24458882 0.43151793 1.1490341
-0.24513999 0.44616219 1.1552491
-0.24405056 0.45877242 1.1622868
-0.24641334 0.46827823 1.1641598
-0.22854094 0.25018567 1.0820183
-0.23171011 0.25740546 1.0819594
-0.23391835 0.27078527 1.0858005
-0.23598322 0.28662467 1.0909396
-0.23795673 0.29502025 1.0927161
-0.237598 0.3088398 1.0995284
-0.23802677 0.32116258 1.1047959
-0.23885405 0.33170834 1.1088074
-0.23926392 0.34618351 1.1150962
-0.24053577 0.35870889 1.1195493
-0.24086481 0.36991775 1.1244061
-0.24170783 0.38341278 1.1297722
-0.24264365 0.39697796 1.1350709
-0.24394536 0.40866041 1.1390998
-0.24438475 0.42110959 1.1444147
-0.24488544 0.43384641 1.1497972
-0.24566036 0.44515598 1.1542205
-0.2461637 0.45881563 1.1600292
-0.2466092 0.47146431 1.1654302
-0.22578235 0.24823987 1.0840868
-0.22992004 0.25317764 1.081923
-0.23284911 0.2618179 1.0827835
-0.23347041 0.27680895 1.089084
-0.23391573 0.27430427 1.0874394
-0.23601231 0.28884009 1.0919383
-0.23601639 0.28749755 1.0913098
-0.23765033 0.30224597 1.096406
-0.23787594 0.31359243 1.1014386
-0.23776352 0.31153512 1.1006031
-0.23820767 0.3262451 1.106964
-0.23912199 0.33566731 1.1103597
-0.23830405 0.33989772 1.1132081
-0.23934835 0.34985548 1.1167125
-0.24108249 0.3638885 1.1213682
-0.24150357 0.36330774 1.1206445
-0.24187902 0.37385461 1.1251435
-0.24145856 0.37649295 1.1268234
-0.2421775 0.38901278 1.1318698
-0.24054509 0.37919813 1.1290659
-0.24175206 0.38785726 1.1317912
-0.24284697 0.40152067 1.136964
-0.24268255 0.40069047 1.1367552
-0.24412578 0.41197833 1.1404481
-0.24441642 0.41443032 1.1412748
-0.24539831 0.4261404 1.1456614
-0.24574485 0.43865982 1.1511089
-0.24557129 0.43920773 1.1515508
-0.2462334 0.45092347 1.1562846
-0.24567032 0.45180649 1.157302
-0.24585074 0.46286282 1.1622483
-0.2476002 0.4771255 1.1669943
-0.24735421 0.47602561 1.1667479
-0.22594607 0.2510384 1.0852115
-0.23336732 0.26598221 1.084161
-0.23467241 0.27919358 1.0888972
-0.23674053 0.29268581 1.0929415
-0.23764499 0.30717769 1.0987049
-0.23825267 0.31778347 1.1029812
-0.23805535 0.33138764 1.1095191
-0.23902592 0.34490511 1.1147584
-0.23907463 0.35434201 1.1190937
-0.24034685 0.36947894 1.1247605
-0.24211678 0.38213292 1.1287364
-0.24203295 0.38515395 1.1302315
-0.24274397 0.39249948 1.1328804
-0.24409379 0.40650383 1.1379372
-0.24508992 0.41902968 1.1426874
-0.24522829 0.43231261 1.1487143
-0.24600857 0.44505888 1.1538
-0.2470634 0.45800021 1.1586803
-0.24565926 0.4607006 1.1614492
-0.24580133 0.46855345 1.1649475
-0.22798294 0.25011811 1.0825881
-0.23149602 0.25693205 1.0819701
-0.23458421 0.26956779 1.0845166
-0.23541377 0.28247514 1.0896239
-0.23725025 0.294954 1.0934467
-0.2386274 0.30677265 1.0974575
-0.23890556 0.32024324 1.1034212
-0.23903817 0.33456165 1.1099358
-0.23978095 0.34455985 1.1137838
-0.23890309 0.35802329 1.12099
-0.23999426 0.36982134 1.1252997
-0.24199104 0.3797318 1.1277555
-0.24292122 0.39591902 1.1342795
-0.24503869 0.40913644 1.1381427
-0.24548674 0.42237854 1.1438168
-0.24679224 0.43071222 1.1462848
-0.24551028 0.43293566 1.1487002
-0.24572434 0.44582492 1.1544626
-0.24742156 0.45999098 1.1592199
-0.2495701 0.46972218 1.1614287
-0.24711783 0.47073439 1.1645426
-0.22938302 0.25275788 1.0823066
-0.23267275 0.26094502 1.0825675
-0.23448515 0.27467307 1.0869973
-0.23514087 0.2863813 1.0917343
-0.23500392 0.28828403 1.0927665
-0.23627423 0.30101788 1.0973182
-0.23785599 0.31374881 1.1015328
-0.23878311 0.32636437 1.1063992
-0.23827119 0.32931989 1.1083251
-0.23864754 0.33758286 1.1117615
-0.23980081 0.35115913 1.1168311
-0.24000615 0.36357099 1.1223806
-0.23928843 0.36258787 1.1226972
-0.24050112 0.37538931 1.1273423
-0.24128672 0.38781422 1.1322727
-0.24273561 0.40112907 1.136902
-0.24310751 0.40109017 1.1364828
-0.24464321 0.41240868 1.1400905
-0.24491206 0.41310447 1.1401242
-0.24531204 0.42677912 1.1460513
-0.24571529 0.43927085 1.1514249
-0.24588378 0.44666755 1.1546826
-0.24562123 0.45064953 1.156817
-0.24656141 0.46304792 1.1615683
-0.24758911 0.4763208 1.1666322
-0.24678722 0.47774866 1.1681601
-0.23249128 0.265118 1.0847036
-0.23421378 0.28010368 1.0898148
-0.23553534 0.29274988 1.0942703
-0.23742676 0.30514807 1.0979964
-0.23835164 0.31790444 1.1029307
-0.23855567 0.33047763 1.1085569
-0.23894276 0.34338683 1.1141419
-0.2387968 0.33547658 1.1106213
-0.24061616 0.355941 1.1181756
-0.23924547 0.3538422 1.1186771
-0.23970714 0.3673501 1.12446
-0.24069446 0.37991235 1.1292369
-0.24041906 0.37308761 1.1263607
-0.24091682 0.39391452 1.1355078
-0.24286237 0.40593076 1.1389978
-0.24398218 0.41926062 1.1439887
-0.24468726 0.43083578 1.1486111
-0.24504361 0.42364928 1.1448853
-0.24478766 0.43482986 1.1503597
-0.24484041 0.44335121 1.1542649
-0.24593171 0.45629656 1.1591079
-0.24620399 0.45926791 1.1601961
-0.24618536 0.46886575 1.1646787
-0.2464592 0.47557768 1.1675044
-0.23596773 0.24739838 1.0727174
-0.2387559 0.25414482 1.0728493
-0.22986236 0.25633407 1.0834527
-0.23299778 0.26790321 1.0854526
-0.2343116 0.28127828 1.0902553
-0.23595628 0.29422575 1.0945027
-0.23844548 0.30673164 1.0976347
-0.24016239 0.32601747 1.1047512
-0.23873517 0.33023548 1.1082507
-0.24101388 0.36167553 1.1204134
-0.24166058 0.36724973 1.1223079
-0.2405528 0.38833117 1.133304
-0.24122566 0.39347368 1.1349698
-0.24287058 0.40581718 1.1389363
-0.24403316 0.41928086 1.1439432
-0.24393345 0.43111596 1.1495537
-0.24512175 0.44346613 1.1540152
-0.24520653 0.45529836 1.1594254
-0.24498118 0.465105 1.1642281
-0.24605253 0.47194457 1.1662533
-0.2307604 0.24919501 1.0791655
-0.22638796 0.25354016 1.0858984
-0.23863247 0.26317966 1.077183
-0.23387997 0.25948131 1.0805857
-0.24031135 0.27443272 1.0806057
-0.23401032 0.27232707 1.086418
-0.23536293 0.28684536 1.0917107
-0.23453437 0.28418791 1.0913682
-0.23695403 0.29881886 1.0955631
-0.23681857 0.29841936 1.0955234
-0.23931529 0.30900407 1.0977538
-0.23810916 0.31162077 1.1002704
-0.23959194 0.32318363 1.1040485
-0.23936149 0.3372193 1.1108229
-0.2390255 0.33652827 1.1108638
-0.23895521 0.34848201 1.1164976
-0.23919919 0.35928333 1.1212568
-0.24047282 0.37212408 1.1258546
-0.24100241 0.37583065 1.1270072
-0.24160258 0.38632405 1.1312394
-0.24180041 0.39924461 1.1370336
-0.24137343 0.39826614 1.1370389
-0.24361514 0.41418293 1.1420234
-0.24389823 0.41622174 1.1426662
-0.24406414 0.42417106 1.1461836
-0.24495663 0.43755785 1.151446
-0.24576776 0.4512279 1.1569278
-0.24510883 0.44867423 1.1564507
-0.24694715 0.46175525 1.1605515
-0.24554828 0.46190387 1.1621283
-0.24661499 0.47575474 1.1674187
-0.23804063 0.26957846 1.0807962
-0.23816951 0.27911645 1.0850922
-0.23559307 0.28236148 1.0893779
-0.23731591 0.29306114 1.0924959
-0.23504966 0.29017332 1.0935957
-0.23706441 0.30424845 1.0979687
-0.23817091 0.3162922 1.102376
-0.23894684 0.32793826 1.1069546
-0.23842062 0.34110332 1.1136431
-0.23930953 0.35486734 1.1190847
-0.23959966 0.35799849 1.1202278
-0.23936087 0.36532733 1.1238929
-0.24188787 0.39207485 1.1336057
-0.24217823 0.39605406 1.1351429
-0.24245813 0.4052178 1.1391021
-0.24374905 0.41614699 1.1427922
-0.244775 0.42974192 1.1480076
-0.24531738 0.44253087 1.1533695
-0.24565184 0.44335669 1.153393
-0.24660218 0.4546313 1.157611
-0.24729954 0.46801996 1.1630845
-0.24755192 0.47933781 1.168075
-0.23863776 0.2769905 1.0835989
-0.23727942 0.29948354 1.0955213
-0.23839852 0.30854589 1.098529
-0.23917376 0.30633178 1.0966638
-0.24223819 0.31560349 1.097672
-0.23851065 0.32355082 1.1053847
-0.24021743 0.3346521 1.1087067
-0.23942026 0.33047387 1.1076232
-0.23796129 0.34931511 1.1179563
-0.23934793 0.35643092 1.1197703
-0.24065083 0.37006569 1.1247056
-0.23996608 0.38042325 1.1302595
-0.24180125 0.39764327 1.1362883
-0.24285091 0.40964013 1.140735
-0.24227943 0.40457582 1.1389964
-0.24384271 0.4169696 1.1430738
-0.24512687 0.43921506 1.1520332
-0.2457367 0.4466981 1.1548553
-0.24678043 0.45626038 1.1581764
-0.2481453 0.46717075 1.1617782
-0.23880945 0.32169017 1.1041975
-0.24277969 0.34552255 1.1109995
-0.23884961 0.34636948 1.1156292
-0.23906426 0.36037737 1.121911
-0.24073775 0.37316632 1.1260536
-0.2420803 0.38195962 1.1286952
-0.24116424 0.38533479 1.1312518
-0.24287991 0.39886039 1.1356915
-0.24367192 0.41146156 1.1406969
-0.244179 0.42302173 1.1455256
-0.24396196 0.42286426 1.145686
-0.24507362 0.43516412 1.1502069
-0.24609725 0.44909763 1.1555823
-0.2471762 0.46147078 1.1601723
-0.24701415 0.46066883 1.1599742
-0.24770047 0.47363165 1.1652616
-0.24137315 0.35527563 1.1170504
-0.23826985 0.35613078 1.1207927
-0.24177115 0.36546493 1.121359
-0.23925397 0.36546698 1.1240728
-0.24152391 0.37791389 1.1274137
-0.24271038 0.39124456 1.1323333
-0.24282669 0.40413785 1.1382027
-0.24291494 0.40217888 1.1371969
-0.24386357 0.41632208 1.1427503
-0.24446206 0.427982 1.1475267
-0.24520026 0.44012165 1.1523756
-0.24461763 0.44165543 1.1537167
-0.24576904 0.45272636 1.1576233
-0.24670029 0.46663475 1.1630864
-0.24777135 0.479597 1.1679589
-0.24173798 0.37755811 1.1270177
-0.24213248 0.38438791 1.129768
-0.24503207 0.39435667 1.1312778
-0.24280824 0.40859792 1.1402965
-0.24331705 0.41647163 1.143409
-0.24452291 0.42868742 1.1477891
-0.24515243 0.44689715 1.1555773
-0.24547844 0.45404068 1.1585476
-0.2459586 0.46263185 1.1620246
-0.24178007 0.40337768 1.1389774
-0.24471863 0.41195518 1.1397984
-0.24571005 0.42371678 1.1441985
-0.24351645 0.42191613 1.1457255
-0.24619654 0.43413171 1.1485167
-0.24457476 0.43533933 1.1508261
-0.24565668 0.44837365 1.1557205
-0.24595633 0.46149153 1.1614969
-0.24524306 0.4594959 1.1613379
-0.24750945 0.47373384 1.1655151
-0.24599899 0.47245666 1.1665491
-0.24718796 0.43170652 1.1463205
-0.24665426 0.44294769 1.1521224
-0.24770774 0.45368826 1.1559809
-0.24573971 0.45318186 1.1578667
-0.24659151 0.46555772 1.1627029
-0.24791403 0.47802341 1.1670735
-0.24857214 0.45146191 1.1540141
-0.24742454 0.4667699 1.1623687
-0.24781556 0.4797796 1.1679963
-0.24565282 0.47657418 1.1688367
-0.23426107 0.24934544 1.0873049
-0.23996459 0.24416067 1.0915636
-0.23336904 0.2463596 1.0855023
-0.23131138 0.2539435 1.0856764
-0.25350982 0.2388162 1.1037636
-0.24537677 0.24266692 1.0966303
-0.23780945 0.2458055 1.0898603
-0.23329006 0.24866571 1.0861123
-0.23072006 0.25655633 1.0858562
-0.23020524 0.25713831 1.0855061
-0.26835659 0.2332266 1.1172162
-0.25312382 0.2389596 1.1034133
-0.2364057 0.24692549 1.0887655
-0.28005213 0.22591546 1.126943
-0.27258328 0.22922803 1.1203253
-0.26120695 0.23582987 1.1107115
-0.26396072 0.23529658 1.1133574
-0.24563323 0.24285422 1.0969477
-0.23066837 0.25013459 1.0838809
-0.22778186 0.25374073 1.0820198
-0.29266852 0.22106577 1.1383448
-0.28470394 0.22544158 1.1315404
-0.27674863 0.22826959 1.1242821
-0.26986703 0.23210298 1.1184187
-0.25991416 0.23641716 1.1095701
-0.25237837 0.24044602 1.1030989
-0.25495392 0.23783687 1.1049416
-0.24579531 0.24118388 1.0966128
-0.23679593 0.24570502 1.0887977
-0.22944239 0.25220308 1.0832511
-0.29977313 0.21842459 1.1447923
-0.24196205 0.24242759 1.0930797
-0.23269749 0.24483848 1.0843627
-0.22788219 0.24973407 1.0809224
-0.30940115 0.2131253 1.1530149
-0.30367583 0.21472839 1.1476618
-0.29393139 0.2223431 1.1400139
-0.28543168 0.2257873 1.1323853
-0.27780068 0.22941922 1.125698
-0.26986751 0.23264816 1.1185824
-0.26185939 0.23557559 1.1113001
-0.25405902 0.23738334 1.1038941
-0.24636412 0.24128014 1.0972211
-0.23882583 0.24314493 1.0900992
-0.23266494 0.24665949 1.0848747
-0.2286098 0.2550683 1.0832608
-0.22929817 0.25749889 1.0846896
-0.32453215 0.21077497 1.167727
-0.31669429 0.21149661 1.1599578
-0.31013155 0.21465598 1.1542174
-0.30383086 0.21942773 1.1492267
-0.29444337 0.22197184 1.1404244
-0.28696975 0.22406393 1.1334364
-0.28163144 0.22555828 1.128445
-0.29878816 0.22161287 1.1447433
-0.29210976 0.22398952 1.1386509
-0.28486934 0.22559103 1.1317537
-0.27682167 0.22860205 1.124456
-0.26957476 0.23281637 1.1183345
-0.26112926 0.23597673 1.1106764
-0.2541092 0.23807776 1.1041532
-0.24643832 0.2418462 1.0974661
-0.23784356 0.24545167 1.0897892
-0.2310468 0.25080284 1.0844666
-0.22922674 0.25995684 1.0853529
-0.33111513 0.20711058 1.1733367
-0.31598741 0.21327053 1.1597687
-0.30830115 0.21700376 1.1530554
-0.30005443 0.21929374 1.1453391
-0.27887034 0.22990024 1.1269319
-0.27486178 0.23196687 1.1234666
-0.26737341 0.23398642 1.1164421
-0.25786641 0.23607972 1.1073829
-0.25236231 0.23995875 1.1029365
-0.24545783 0.24294049 1.0967948
-0.23652378 0.24660587 1.0887902
-0.3507776 0.19807047 1.1906626
-0.34181675 0.20199008 1.1827066
-0.33453363 0.20261756 1.1754744
-0.32814577 0.20583867 1.1699307
-0.29319763 0.22324531 1.1395363
-0.28595704 0.22772694 1.1335012
-0.27916384 0.22923416 1.1270314
-0.27043343 0.23052652 1.1185237
-0.26385146 0.23355493 1.1127247
-0.25785869 0.23727703 1.1077335
-0.23089546 0.2515161 1.0845259
-0.22832105 0.25369585 1.0825557
-0.35536042 0.19630913 1.1948043
-0.34413245 0.20046529 1.1846094
-0.33894649 0.2021479 1.1798296
-0.33375844 0.20535472 1.1755042
-0.33026522 0.20679873 1.1723773
-0.32480279 0.2093299 1.16757
-0.31534851 0.21270776 1.1589493
-0.30903828 0.21667795 1.1537088
-0.29980746 0.22171612 1.1458127
-0.29267582 0.22377691 1.1391639
-0.28501448 0.22498752 1.1317209
-0.27680612 0.22797309 1.1242518
-0.2694335 0.231186 1.1177025
-0.26199913 0.23578262 1.1115043
-0.25295365 0.24093194 1.1038303
-0.24523312 0.24280828 1.0965264
-0.24000666 0.24404046 1.0915704
-0.23227406 0.24660972 1.0844616
-0.22795534 0.24852979 1.0806365
-0.23520592 0.24693936 1.0875472
-0.22865602 0.2545858 1.0831634
-0.22737139 0.25603485 1.0822885
-0.37098676 0.18866198 1.2084352
-0.36339325 0.19321632 1.2020624
-0.35549265 0.19577731 1.1947799
-0.34759051 0.19887519 1.1876565
-0.34013075 0.20263642 1.1811825
-0.32786894 0.20968911 1.1708014
-0.32062089 0.21171804 1.1640245
-0.31324011 0.21574511 1.1577104
-0.30784824 0.21870595 1.1531037
-0.30043745 0.22000965 1.1459436
-0.29253411 0.22265969 1.138685
-0.27720112 0.22916603 1.1250114
-0.26867408 0.23146948 1.1170136
-0.26149788 0.23710589 1.1113899
-0.25397009 0.2402741 1.104669
-0.24588995 0.24125643 1.0967309
-0.23865731 0.24285468 1.0898407
-0.23013029 0.24688859 1.082361
-0.22791791 0.25895774 1.0837202
-0.38279518 0.1836192 1.2189561
-0.37817821 0.18516028 1.2147136
-0.3329702 0.20767663 1.1753961
-0.3255204 0.20984788 1.1684562
-0.31943199 0.21305487 1.1632134
-0.31289878 0.21552384 1.1572964
-0.30149317 0.21866429 1.1466163
-0.29780748 0.21990521 1.1432329
-0.28632009 0.22629419 1.1334423
-0.39549887 0.17966893 1.2307161
-0.3873612 0.18182515 1.223071
-0.37830716 0.18680464 1.2153373
-0.37359381 0.18858451 1.2110682
-0.36545244 0.19039589 1.2033159
-0.35887891 0.19264005 1.1972905
-0.37041274 0.19116835 1.2086008
-0.36210731 0.19269495 1.2005962
-0.35462862 0.19567268 1.1938683
-0.34795526 0.2001017 1.1883951
-0.34011561 0.20365056 1.1814706
-0.33245045 0.2066924 1.174572
-0.32469946 0.20925942 1.1674436
-0.31657803 0.21340622 1.1604109
-0.3094497 0.21634834 1.1540293
-0.30104157 0.21933195 1.1463562
-0.29164064 0.22443871 1.1383073
-0.28511879 0.22605294 1.1321461
-0.27985692 0.22782473 1.1273156
-0.27453318 0.23106806 1.1228628
-0.26963416 0.2345269 1.1189071
-0.26229498 0.2368708 1.1121316
-0.25605553 0.23840009 1.1062325
-0.24721795 0.23983248 1.0976576
-0.40978241 0.17368408 1.2434765
-0.40246141 0.17491162 1.2363852
-0.3946498 0.1799203 1.2299262
-0.38679335 0.18183614 1.2224957
-0.37962741 0.18473631 1.2160631
-0.37207252 0.18790051 1.2093134
-0.36332029 0.19163516 1.2015146
-0.35713136 0.19629215 1.1966035
-0.35389903 0.19903146 1.1941304
-0.34620059 0.20141627 1.1870011
-0.33913678 0.20363384 1.1804683
-0.33139533 0.20591733 1.1732649
-0.3245182 0.2105348 1.1676407
-0.30131122 0.21932065 1.1466275
-0.29296225 0.22219738 1.1389828
-0.27143663 0.2299848 1.1193837
-0.27731025 0.23367244 1.1264719
-0.26396355 0.23161423 1.1122578
-0.26099539 0.2342591 1.1100256
-0.41643348 0.17114401 1.2494923
-0.3493824 0.19869176 1.1894273
-0.34205151 0.20119561 1.182708
-0.33384031 0.20288746 1.1748488
-0.33051392 0.20584531 1.1723453
-0.32820112 0.20887505 1.1708961
-0.3218514 0.21056327 1.1649324
-0.31732434 0.21317267 1.1611013
-0.31177205 0.21570505 1.1562028
-0.28549281 0.22782567 1.1330578
-0.27774334 0.23142725 1.1262408
-0.42788187 0.16692622 1.2598933
-0.41798803 0.16953774 1.2505952
-0.41033185 0.17362913 1.24402
-0.403375 0.17567365 1.2375442
-0.39707407 0.17755309 1.2316874
-0.38716286 0.18155076 1.2227865
-0.37888163 0.18462163 1.215269
-0.37137789 0.1887309 1.2088543
-0.36432526 0.19426015 1.2033243
-0.35694686 0.19711369 1.1966615
-0.34920195 0.19961922 1.1895211
-0.34034163 0.20197323 1.1811987
-0.33345646 0.2063181 1.1754849
-0.32637492 0.20890817 1.1690456
-0.318708 0.21138994 1.1619774
-0.31175947 0.21436326 1.1557883
-0.30750993 0.21660957 1.1521313
-0.30071992 0.22042337 1.1463553
-0.29204527 0.22375724 1.1385156
-0.28445664 0.2270005 1.1317552
-0.44004291 0.15942734 1.2700381
-0.43408301 0.16379836 1.2652746
-0.41830498 0.17099467 1.2513542
-0.41086 0.17289257 1.2443376
-0.41857895 0.17540616 1.2529542
-0.39959392 0.17846954 1.2345291
-0.39214218 0.18092698 1.2276729
-0.38783145 0.18167891 1.2235061
-0.38185859 0.18456343 1.2182846
-0.37830552 0.18687044 1.2153553
-0.37069708 0.19173554 1.2090603
-0.36274469 0.19329017 1.2014236
-0.35449558 0.19740294 1.1942506
-0.34748459 0.20052852 1.1880436
-0.33848947 0.20374127 1.179841
-0.33070135 0.20740904 1.1730045
-0.32406592 0.21003227 1.1670295
-0.31652725 0.21404526 1.1605505
-0.30844647 0.21721977 1.1532681
-0.29986745 0.21935102 1.1451658
-0.29647702 0.22093116 1.1421846
-0.2929658 0.22334948 1.1393313
-0.44198862 0.1547761 1.270628
-0.44542173 0.15492168 1.2741692
-0.43982348 0.15447833 1.268333
-0.45030457 0.15852304 1.2802221
-0.4450869 0.15859224 1.274927
-0.43898422 0.15960492 1.2690127
-0.42770991 0.16807187 1.2600611
-0.42429921 0.16530991 1.2557594
-0.42405328 0.17434946 1.2582152
-0.37996072 0.1886493 1.2175742
-0.37526143 0.19022565 1.2132585
-0.36650777 0.1934424 1.2053032
-0.36101574 0.19597524 1.2004662
-0.31656712 0.20697965 1.1584759
-0.30910426 0.21474503 1.1531974
-0.43558577 0.15807877 1.2650934
-0.42780194 0.16111101 1.2580709
-0.43216762 0.16467296 1.2635851
-0.41701519 0.16988763 1.2497088
-0.41004175 0.17390199 1.243806
-0.40224195 0.17665754 1.2366844
-0.39431 0.17981625 1.2295489
-0.38697049 0.1838607 1.2232822
-0.37997034 0.18790583 1.2173615
-0.3721779 0.19108887 1.2103753
-0.36556023 0.19410168 1.2045351
-0.36025673 0.19597609 1.1996931
-0.35462919 0.19968452 1.1950698
-0.3468459 0.20262213 1.1880196
-0.33886731 0.20562214 1.1807891
-0.33146787 0.20748486 1.1738081
-0.32438523 0.20370549 1.1654608
-0.32335618 0.21058179 1.1664709
-0.4367215 0.15904491 1.2665398
-0.43354216 0.15923184 1.2633566
-0.42737082 0.16426343 1.2585754
-0.41909629 0.1684608 1.2514019
-0.42747128 0.16644302 1.2593304
-0.42228693 0.16911891 1.2548497
-0.41555145 0.17133901 1.248652
-0.40920091 0.17386667 1.2429388
-0.40144554 0.17649786 1.2358252
-0.39458516 0.17958759 1.2297609
-0.38667679 0.18450327 1.2231754
-0.37799224 0.18799146 1.2153717
-0.37168729 0.19150731 1.2100008
-0.36540899 0.19648288 1.205094
-0.35930216 0.19900441 1.1996272
-0.35329652 0.20174743 1.1943296
-0.34618232 0.2032184 1.1875221
-0.3363719 0.20537889 1.1781739
-0.33231288 0.20488045 1.1738893
-0.40691584 0.17174411 1.2399753
-0.35678339 0.18803926 1.1937782
-0.41368845 0.17424682 1.2476245
-0.40772608 0.17591587 1.2420497
-0.39995858 0.17846875 1.2349004
-0.39344794 0.18162695 1.2292128
-0.35261142 0.19529513 1.1917
-0.36410117 0.19597416 1.2036092
-0.35692212 0.1979211 1.1968781
-0.34260333 0.20115438 1.1832578
-0.43447933 0.16107765 1.264864
-0.42649773 0.16638058 1.2583197
-0.41889736 0.16988599 1.2516259
-0.41069001 0.17226154 1.2439753
-0.40457681 0.17572123 1.238783
-0.39950594 0.17984936 1.2348526
-0.38891265 0.18250722 1.2248557
-0.38508853 0.18388522 1.2213721
-0.36191607 0.18848717 1.1991415
-0.38592631 0.18404245 1.2222728
-0.37839434 0.1884905 1.2159308
-0.37114629 0.19194154 1.2095796
-0.36430955 0.1936762 1.2031336
-0.34825695 0.20005864 1.1886897
-0.43527839 0.16111502 1.2656893
-0.42769632 0.16682634 1.2596744
-0.41928083 0.16899177 1.2517488
-0.41029891 0.17290395 1.2437693
-0.39816311 0.18210995 1.2341613
-0.39552936 0.18061265 1.2310296
-0.38383651 0.18648055 1.2208736
-0.37193835 0.18916313 1.2095547
-0.37756079 0.18852548 1.2150921
-0.43865392 0.15711857 1.2679318
-0.43717039 0.1619143 1.2678561
-0.40479016 0.17816302 1.2397313
-0.38870424 0.1836151 1.224975
-0.38160622 0.18636389 1.2185664
-0.43949485 0.15951131 1.2695049
-0.435054 0.16360845 1.2662071
-0.4272092 0.16665056 1.2591255
-0.42870426 0.16431096 1.2599481
-0.41884142 0.17028202 1.2516875
-0.41071728 0.17375669 1.2444507
-0.38799655 0.18149066 1.2236179
-0.40417123 0.17799063 1.2390491
-0.39659691 0.18048471 1.232079
-0.44707733 0.15871513 1.2769916
-0.4419713 0.158852 1.2718306
-0.43549818 0.16137198 1.26599
-0.42780188 0.16780461 1.2600749
-0.41922933 0.17295605 1.2528832
-0.41915232 0.17071934 1.252135
-0.41061151 0.17597255 1.2450063
-0.40498942 0.17583284 1.2392367
-0.3954607 0.17540795 1.2294016
-0.44559327 0.1586362 1.2754561
-0.43755263 0.16133337 1.2680717
-0.43290246 0.16404372 1.2641454
-0.41755909 0.16793987 1.2496798
-0.41174126 0.17101476 1.244673
-0.42579305 0.17092176 1.2589614
-0.4137395 0.17207372 1.247026
-0.42106587 0.16109982 1.2512047
-0.42622775 0.16715699 1.2582772
-0.43893057 0.16432177 1.2703701
-0.43357015 0.16378254 1.2647474
-0.20800225 0.24579433 1.1021132
-0.20525137 0.24237286 1.1034874
-0.19802254 0.23981224 1.1100881
-0.20047404 0.24686435 1.1107248
-0.20612389 0.24292329 1.102803
-0.19928168 0.24142583 1.1094812
-0.19177936 0.23929295 1.1165757
-0.18658236 0.23875105 1.121925
-0.19368789 0.24719758 1.1181939
-0.18547042 0.24523689 1.1261392
-0.20587353 0.24344179 1.1033138
-0.1913451 0.23875587 1.1167939
-0.17733753 0.23574147 1.1304898
-0.21205893 0.24289018 1.0963906
-0.20437956 0.24091128 1.1037475
-0.19840226 0.24097636 1.1102201
-0.19233644 0.23985866 1.1162382
-0.18338378 0.23724009 1.1246699
-0.16898474 0.23416123 1.1387578
-0.1635624 0.23490873 1.1449498
-0.21267304 0.24346858 1.0959976
-0.20541117 0.24241693 1.1033356
-0.19774236 0.23978974 1.1103796
-0.19067541 0.23870832 1.1174936
-0.18370853 0.23689383 1.124159
-0.17643306 0.23567985 1.1314361
-0.17281461 0.23321395 1.1341896
-0.16790703 0.2313769 1.1386248
-0.16150096 0.23029339 1.1450256
-0.15423161 0.23149048 1.1534172
-0.20439252 0.24145667 1.103987
-0.15870745 0.22845253 1.1471806
-0.14966141 0.2245252 1.1551044
-0.14552914 0.22609167 1.1602865
-0.20946962 0.24167934 1.0986185
-0.20281723 0.23906122 1.1045711
-0.19691911 0.24075356 1.111715
-0.18944587 0.23854886 1.1187446
-0.18125062 0.2366631 1.1267009
-0.17426307 0.23461547 1.13328
-0.16744274 0.23229972 1.1395543
-0.16014636 0.22887264 1.145825
-0.15207034 0.22724585 1.153773
-0.14524272 0.2241082 1.1596731
-0.13760181 0.22284928 1.1673232
-0.13179228 0.2275712 1.1757803
-0.13837866 0.23199411 1.1707379
-0.21177171 0.24609335 1.0981895
-0.20298116 0.24120381 1.1053907
-0.19665778 0.23981953 1.1115625
-0.19091517 0.24022828 1.117942
-0.17943296 0.23569427 1.1282094
-0.17196918 0.23261876 1.1348239
-0.16663797 0.23042198 1.1395487
-0.19065496 0.24022655 1.1182216
-0.18270062 0.23759755 1.1255726
-0.17593966 0.23434745 1.1313484
-0.1677215 0.23170257 1.1389762
-0.16005611 0.23066899 1.1467576
-0.15211731 0.22808643 1.1541133
-0.14515904 0.22534095 1.1603364
-0.13787934 0.22382572 1.1674781
-0.13036354 0.22172415 1.1746016
-0.12454477 0.22246352 1.1812168
-0.12683891 0.23105173 1.1827374
-0.20385584 0.24300884 1.1052871
-0.18910393 0.23870583 1.1191863
-0.18160388 0.23708935 1.1265182
-0.17496113 0.23412555 1.1322999
-0.15903217 0.23130243 1.1481557
-0.15331838 0.23006651 1.1537395
-0.14782016 0.22746852 1.1584575
-0.13876462 0.22314192 1.1662059
-0.13134184 0.22254926 1.1739308
-0.12304714 0.22030793 1.1818287
-0.11636887 0.21836391 1.1881227
-0.21491985 0.24534576 1.0944488
-0.20897914 0.24383885 1.1001511
-0.19869746 0.23866113 1.1088253
-0.19548213 0.23827735 1.1121125
-0.16691718 0.23289146 1.140396
-0.15854385 0.23191461 1.1489667
-0.14992683 0.2282311 1.1565415
-0.14335172 0.22415051 1.1617309
-0.136315 0.22243434 1.1685172
-0.12721266 0.22102802 1.1776738
-0.10787352 0.21839695 1.1972946
-0.10085736 0.2174703 1.2044257
-0.21087104 0.24435647 1.0983527
-0.2024776 0.2414868 1.106065
-0.19741915 0.23960517 1.1106421
-0.18627316 0.23745589 1.1216561
-0.18884297 0.23816094 1.1192142
-0.18044341 0.23603474 1.1272787
-0.17430355 0.23376375 1.1328404
-0.16648242 0.23282629 1.1408342
-0.15919249 0.23189235 1.1482571
-0.15185145 0.22895712 1.1548046
-0.14483388 0.22509822 1.160574
-0.13681182 0.22242066 1.1679754
-0.12963265 0.22052602 1.1748322
-0.12215216 0.21983203 1.182572
-0.11602478 0.21940313 1.1889769
-0.10766739 0.21577471 1.1962975
-0.098848119 0.21239454 1.2042313
-0.090309195 0.20936614 1.2120267
-0.084973596 0.20797496 1.2171305
-0.1009666 0.21383217 1.2026165
-0.094546966 0.21667321 1.2108566
-0.087221801 0.21547893 1.2181965
-0.2099542 0.24304895 1.0987328
-0.20294681 0.24238479 1.1059766
-0.1948735 0.23941281 1.1132965
-0.18791157 0.23726058 1.1197994
-0.18118575 0.23597774 1.1264521
-0.17641264 0.23645706 1.1318195
-0.1691741 0.23347439 1.1382344
-0.15944716 0.23163161 1.1478615
-0.15210855 0.23023804 1.1551231
-0.14404204 0.2262719 1.1619731
-0.13580449 0.22333701 1.1694871
-0.12121361 0.21932586 1.1833482
-0.11417137 0.21615158 1.1894627
-0.10764183 0.21681112 1.1968069
-0.10032861 0.21477503 1.2037425
-0.0909051 0.20985857 1.2116133
-0.086187117 0.20718215 1.215454
-0.082597725 0.20661555 1.2190592
-0.082480326 0.21713045 1.2240748
-0.21365528 0.24399146 1.0951822
-0.20914018 0.24235377 1.099287
-0.17293489 0.23559573 1.1351672
-0.16486803 0.23243518 1.1423924
-0.15760034 0.23101865 1.1495669
-0.15068439 0.22882611 1.1560017
-0.13858199 0.22388315 1.1667473
-0.13774835 0.22336401 1.1674045
-0.12858251 0.22228822 1.1767834
-0.21568611 0.2458536 1.093859
-0.20899057 0.24279158 1.0996518
-0.20154834 0.24182925 1.1072258
-0.19245948 0.23909497 1.1157506
-0.18514593 0.23553154 1.1219764
-0.17821835 0.23310699 1.1283157
-0.19541298 0.24111043 1.1135042
-0.18907413 0.23748615 1.1186512
-0.18064943 0.2349771 1.1265647
-0.17237881 0.23420388 1.1351196
