# .PCD v0.7 - Point Cloud Data file format
VERSION 0.7
FIELDS x y z
SIZE 4 4 4
TYPE F F F
COUNT 1 1 1
WIDTH 650
HEIGHT 1
VIEWPOINT 0 0 0 1 0 0 0
POINTS 650
DATA ascii
-0.0290196 0.13791288 0.86249858
-0.029111762 0.13642058 0.86166596
-0.028572628 0.13516559 0.86182219
-0.029497042 0.14494306 0.86515445
-0.029253144 0.14389476 0.86499828
-0.029265342 0.14620981 0.8660742
-0.029828973 0.15343887 0.86870444
-0.030400211 0.16194057 0.87192482
-0.031189803 0.16994098 0.87460542
-0.030275851 0.13929816 0.86140811
-0.029960096 0.14065391 0.86248654
-0.029554706 0.13968968 0.86259431
-0.031020164 0.14963931 0.86525667
-0.029552344 0.14857614 0.86679292
-0.031285554 0.15788648 0.86878151
-0.030287288 0.15633182 0.86943376
-0.031300131 0.16564713 0.87242514
-0.03092232 0.1649871 0.87263811
-0.031562649 0.17402261 0.87601453
-0.031244269 0.17339468 0.8761602
-0.030899208 0.17959441 0.87956631
-0.03004371 0.14349453 0.86371154
-0.029842306 0.14437377 0.86440629
-0.0308837 0.15327972 0.86716467
-0.03101182 0.15310256 0.86690325
-0.031067278 0.16125739 0.87067598
-0.031031869 0.16104311 0.87062401
-0.032177307 0.17002477 0.87327373
-0.031270608 0.17000756 0.87452453
-0.030960582 0.16971478 0.87481689
-0.031743504 0.17817509 0.87772387
-0.031249266 0.17765823 0.87816614
-0.030523159 0.18396387 0.88215119
-0.029121861 0.18571366 0.8849231
-0.028713597 0.18645827 0.88584155
-0.027837211 0.19239238 0.88985997
-0.027278196 0.19228314 0.89058459
-0.028055983 0.19775847 0.89208955
-0.030668892 0.13892263 0.86068511
-0.030200437 0.14068508 0.86216766
-0.029682137 0.13977875 0.86245942
-0.030961424 0.14948559 0.86526561
-0.030053198 0.14741634 0.86554986
-0.031797118 0.1567844 0.86755097
-0.030877411 0.15636344 0.86862928
-0.030216001 0.15306057 0.86798847
-0.031543545 0.16552553 0.87202978
-0.030645512 0.16479675 0.87293267
-0.032678682 0.17339776 0.87417001
-0.031805292 0.17282426 0.87511194
-0.031903949 0.18082792 0.8787536
-0.031569827 0.18209192 0.87981427
-0.030248158 0.1888521 0.88484085
-0.029249799 0.18907899 0.88633424
-0.028364457 0.1886007 0.88733786
-0.028231949 0.19632301 0.8911674
-0.027546043 0.19586122 0.89190185
-0.027879942 0.20257993 0.89461017
-0.027836777 0.2039168 0.89530128
-0.027032426 0.20399472 0.89645499
-0.027924439 0.21260969 0.89928335
-0.02705404 0.21132879 0.89988726
-0.028390136 0.218977 0.90164268
-0.027127357 0.2198998 0.90383184
-0.029631793 0.13656418 0.86101168
-0.029183015 0.13618974 0.86145818
-0.029465124 0.14422244 0.86485869
-0.030538023 0.15254596 0.86729836
-0.030959822 0.1516853 0.86630625
-0.031117029 0.15965381 0.86984992
-0.03106463 0.16146785 0.8707791
-0.031570673 0.16951801 0.87387675
-0.031317145 0.16896689 0.87396878
-0.032061189 0.17675385 0.87661177
-0.031652547 0.17716107 0.87737143
-0.030299217 0.18492979 0.88291824
-0.030370466 0.18688589 0.88374281
-0.029357981 0.19152385 0.88733828
-0.02802616 0.19437248 0.89053243
-0.02920118 0.19887583 0.89102685
-0.028283395 0.20096947 0.89328969
-0.028021447 0.20074096 0.89354557
-0.02854871 0.20805155 0.89626467
-0.027613107 0.20804329 0.89756
-0.026739847 0.21004565 0.89971781
-0.027688954 0.21617378 0.90129292
-0.027433217 0.21638732 0.90174884
-0.027716741 0.22202991 0.90401912
-0.027318213 0.22440454 0.90569347
-0.026588881 0.22517365 0.90706927
-0.027175149 0.23141114 0.90920001
-0.026547639 0.23185255 0.91027969
-0.027989998 0.23814297 0.91124654
-0.026527919 0.23980601 0.9140619
-0.030395098 0.13986692 0.86151111
-0.029996127 0.13751341 0.86095393
-0.030550741 0.14721556 0.86476415
-0.030401826 0.14713064 0.86493093
-0.030441359 0.14951828 0.86600327
-0.031176798 0.15646039 0.86825937
-0.030819625 0.15526457 0.86819088
-0.031987593 0.16521069 0.87126452
-0.031241678 0.16413867 0.87179416
-0.032498591 0.17274955 0.87411398
-0.032300539 0.17281114 0.87441808
-0.032272227 0.17427894 0.87515044
-0.03224235 0.1803139 0.87804097
-0.031629026 0.18155035 0.87947631
-0.030680262 0.18209279 0.88104975
-0.030422032 0.18876052 0.88455623
-0.030053355 0.18846634 0.88492918
-0.030630969 0.19501488 0.88721871
-0.029918768 0.19657338 0.88894337
-0.028364025 0.1969261 0.89126885
-0.030104689 0.20460661 0.89247775
-0.02890582 0.20445144 0.89406925
-0.02919263 0.20529677 0.89407003
-0.029286817 0.21295151 0.89755303
-0.028954882 0.21227032 0.89769238
-0.02930158 0.21918264 0.90047413
-0.028365977 0.22072026 0.90249926
-0.02788762 0.21951365 0.90259379
-0.028759737 0.22914153 0.90592813
-0.027869068 0.22789271 0.90657532
-0.027126845 0.22876833 0.90801924
-0.029577855 0.23546931 0.90777951
-0.028036337 0.23669481 0.9104985
-0.027223321 0.23560378 0.91111249
-0.027579103 0.24347581 0.91433477
-0.027133469 0.24454513 0.91545838
-0.02628701 0.24448571 0.91660571
-0.027493227 0.25301716 0.91895843
-0.0260788 0.25174284 0.92032087
-0.028092753 0.25977772 0.92131758
-0.026937485 0.2606318 0.923325
-0.031750791 0.14433259 0.86173677
-0.03087455 0.14351606 0.86256814
-0.030739829 0.144282 0.8631168
-0.031272024 0.15244147 0.86622977
-0.030667327 0.15154921 0.86664832
-0.031931169 0.15964943 0.86871737
-0.030863337 0.16009621 0.87041098
-0.031867914 0.16170675 0.86977649
-0.032130398 0.16889229 0.87280428
-0.032626599 0.16871467 0.87203133
-0.032495476 0.17622185 0.87575758
-0.032107793 0.1771383 0.87672853
-0.032316178 0.17879394 0.87722087
-0.031643771 0.18478245 0.88098168
-0.03158766 0.18470292 0.8810221
-0.031524323 0.19065127 0.88391823
-0.030671261 0.19300133 0.88621217
-0.03026145 0.19154486 0.88609362
-0.030866615 0.20060773 0.88953191
-0.030505762 0.20080353 0.89012533
-0.03032127 0.2013102 0.89062077
-0.030733138 0.20927414 0.8938086
-0.030542597 0.20842275 0.89367127
-0.030676164 0.21602187 0.89707327
-0.030188724 0.21717431 0.89829421
-0.029533863 0.21601062 0.89865416
-0.03047473 0.22532862 0.90174669
-0.029460065 0.22424883 0.90264595
-0.028981343 0.22507612 0.90370113
-0.03045994 0.231537 0.90469819
-0.029675234 0.23353793 0.90673244
-0.0290264 0.23161042 0.90672344
-0.030014727 0.24141912 0.90998173
-0.029153764 0.24060898 0.91079468
-0.028633945 0.24196142 0.91215503
-0.028901011 0.24825966 0.91475773
-0.028051559 0.24850099 0.91605103
-0.027508484 0.25034308 0.91767478
-0.029635068 0.25827929 0.91846842
-0.028793942 0.25721836 0.91913575
-0.02793733 0.25536531 0.91945028
-0.030845366 0.26368538 0.91934013
-0.029482815 0.26519164 0.92194337
-0.028019032 0.2645461 0.92367113
-0.027613871 0.26589873 0.92487222
-0.027373018 0.27315533 0.92863244
-0.027215198 0.27256143 0.92857122
-0.028207725 0.27996099 0.93068635
-0.027086597 0.28069279 0.93258876
-0.031238019 0.14061856 0.86069548
-0.030570731 0.13864556 0.86069059
-0.032135189 0.14867914 0.86325502
-0.031816237 0.14797856 0.86336726
-0.032196835 0.15518677 0.86624169
-0.031696118 0.15657796 0.86759365
-0.0312424 0.1557056 0.86781204
-0.031843297 0.16502474 0.87137705
-0.031913169 0.16489542 0.87121904
-0.030659586 0.16585401 0.87341225
-0.032228656 0.17136002 0.87383288
-0.032000914 0.17377369 0.87528867
-0.031836741 0.17336798 0.87532502
-0.032111764 0.18038838 0.87825739
-0.031853996 0.18093595 0.87887383
-0.031155288 0.18878421 0.88354915
-0.030937843 0.18873064 0.88382584
-0.030945204 0.19576564 0.88713688
-0.030723639 0.19634889 0.88771993
-0.03100688 0.19767395 0.88795209
-0.030499823 0.20474172 0.89199287
-0.030520931 0.20465742 0.89192367
-0.030802086 0.21115762 0.894602
-0.030663721 0.2131459 0.89573276
-0.0308057 0.21465832 0.89624965
-0.031053938 0.22241329 0.89956605
-0.030374616 0.22098619 0.89983559
-0.032063335 0.22833367 0.90095943
-0.030885167 0.22995804 0.90336233
-0.030544452 0.23000999 0.90385997
-0.031138882 0.23853952 0.90706128
-0.030074209 0.23732072 0.90796423
-0.030128639 0.23851788 0.90845394
-0.029809274 0.24419342 0.91157681
-0.02945257 0.24546951 0.91267437
-0.029408656 0.25365654 0.91660064
-0.02860124 0.25340158 0.91760129
-0.029932566 0.26228362 0.91994584
-0.029067006 0.26068839 0.92039466
-0.03066035 0.26951888 0.92235106
-0.02958725 0.27019784 0.92416173
-0.028958432 0.27025944 0.92506391
-0.02935819 0.27623263 0.92732877
-0.027595796 0.2772429 0.93025291
-0.027132688 0.27574018 0.93018651
-0.027709428 0.28615567 0.93430281
-0.027673978 0.28524348 0.9339214
-0.027259594 0.28674853 0.93520737
-0.027603993 0.29364735 0.93798602
-0.026900062 0.29305616 0.9386844
-0.02780515 0.30133194 0.94133449
-0.026840828 0.30109566 0.94256198
-0.032314882 0.14280742 0.8602336
-0.031777754 0.14300787 0.86107403
-0.031532541 0.14558429 0.86263078
-0.032041252 0.15207914 0.86499071
-0.032219991 0.15193835 0.864676
-0.032423258 0.1588099 0.86763775
-0.032011062 0.16029984 0.86891353
-0.031480685 0.16164824 0.87028658
-0.031787276 0.16885954 0.87326521
-0.031629458 0.1679695 0.8730641
-0.032216594 0.17658746 0.87631744
-0.031884581 0.18344478 0.88001579
-0.031269826 0.18505335 0.88162893
-0.030497447 0.19095828 0.88548899
-0.030441098 0.19276027 0.88641798
-0.030456416 0.20032239 0.88996667
-0.029990502 0.2025817 0.89168036
-0.030152097 0.20750509 0.89378035
-0.03000693 0.20885035 0.8946169
-0.030195758 0.21628302 0.89786375
-0.030141808 0.21656209 0.89807039
-0.031059191 0.22508854 0.90082181
-0.031022675 0.2253617 0.90100151
-0.031859636 0.23129714 0.90264142
-0.031154782 0.23317586 0.9045071
-0.031126931 0.23640031 0.90606809
-0.030943893 0.24046028 0.90823883
-0.031376027 0.24214232 0.90843278
-0.030358419 0.24856603 0.91287839
-0.02903758 0.24973325 0.91526365
-0.030665539 0.25699982 0.91643369
-0.029324055 0.2574265 0.9184978
-0.029061694 0.2580516 0.91915721
-0.029931664 0.26506796 0.92126173
-0.02997287 0.26507118 0.921206
-0.031232476 0.27505049 0.92416811
-0.030228641 0.27394193 0.92503858
-0.030376885 0.28097594 0.92815357
-0.02884502 0.28142077 0.93049061
-0.027581368 0.28231522 0.93266761
-0.028174497 0.28877646 0.93489426
-0.027577113 0.28849295 0.93558997
-0.028054483 0.29717427 0.93902546
-0.027806172 0.2987574 0.94011772
-0.028159432 0.30468544 0.94242573
-0.027331518 0.30517149 0.94380492
-0.026165519 0.31268042 0.94896883
-0.026631292 0.31269524 0.94832909
-0.027503928 0.32046881 0.95078737
-0.026802473 0.32161868 0.95230424
-0.026559277 0.32724133 0.9552964
-0.031855404 0.13970008 0.85940462
-0.031420171 0.1386452 0.85951096
-0.03153111 0.14574066 0.8627066
-0.031752303 0.14736338 0.8631655
-0.0316872 0.14896302 0.86401117
-0.032206878 0.15602076 0.86662143
-0.031572521 0.15472886 0.8668924
-0.03206028 0.16236037 0.86981797
-0.031903505 0.16330799 0.87048304
-0.031972826 0.16580534 0.8715657
-0.031672686 0.17241114 0.87510103
-0.031762987 0.17121074 0.87440902
-0.032107159 0.17970309 0.87794036
-0.032157436 0.17949307 0.87777126
-0.031888813 0.18013151 0.87844574
-0.031186655 0.18699265 0.88265985
-0.031064637 0.18778975 0.88320559
-0.030332282 0.19628078 0.88823116
-0.030332685 0.19587073 0.88803691
-0.030263126 0.20220205 0.89112252
-0.029877044 0.20349653 0.89226979
-0.030260585 0.20464019 0.89227706
-0.029790282 0.21153915 0.89618719
-0.029972158 0.21176453 0.89604104
-0.030705526 0.2185649 0.89823312
-0.030405417 0.2200042 0.89932936
-0.03021723 0.22040215 0.89977849
-0.030335143 0.22850582 0.90344054
-0.030014418 0.22902396 0.90413046
-0.03010264 0.23713067 0.90783513
-0.030985057 0.2377115 0.90688407
-0.030378766 0.24556829 0.91143501
-0.030446343 0.24448715 0.9108308
-0.031103127 0.25173062 0.91333836
-0.030710399 0.25373018 0.9148277
-0.030157112 0.25247064 0.91500139
-0.031361923 0.26255441 0.91808891
-0.030819654 0.260405 0.91782719
-0.031894252 0.26921526 0.92049432
-0.031395882 0.26993081 0.92152411
-0.030332766 0.26918706 0.9226492
-0.030787595 0.27701461 0.92571318
-0.030182146 0.27731717 0.92669666
-0.029987797 0.28573886 0.93094236
-0.029754747 0.28566039 0.93122882
-0.030204039 0.29349101 0.93430185
-0.029823191 0.29365563 0.93490833
-0.028800502 0.29275152 0.93590164
-0.029381413 0.30184901 0.93938988
-0.028660156 0.30112541 0.94004983
-0.02805905 0.30139312 0.94101077
-0.02893462 0.30927452 0.94351584
-0.028518908 0.30858305 0.94376665
-0.028571039 0.31627831 0.9473272
-0.027671792 0.3173871 0.94909936
-0.026564475 0.315467 0.9497304
-0.027581662 0.32542607 0.95301968
-0.027040357 0.32467201 0.95341527
-0.026515439 0.32606298 0.9548009
-0.027456095 0.33307639 0.95680577
-0.026577432 0.33213735 0.95758235
-0.032861084 0.1446761 0.86035728
-0.032038733 0.14493853 0.86162311
-0.033857882 0.15048367 0.86171478
-0.032338023 0.15062077 0.86388999
-0.033430666 0.16326033 0.8683399
-0.031880632 0.16001524 0.86896026
-0.031467214 0.15991312 0.86948615
-0.031976968 0.16783403 0.87251776
-0.031491876 0.16820405 0.87336606
-0.031128928 0.16929969 0.8743872
-0.033452064 0.17631748 0.87447441
-0.03115347 0.17597747 0.87750572
-0.031163111 0.17615016 0.87757379
-0.03144522 0.18398209 0.88087958
-0.031401798 0.1853867 0.88160294
-0.030305415 0.19162372 0.88606977
-0.029678956 0.19215344 0.88718981
-0.029369682 0.20042066 0.89152211
-0.030181959 0.19834588 0.88941479
-0.029750645 0.20677458 0.89399278
-0.02986683 0.20783687 0.894333
-0.029653668 0.20906398 0.89520836
-0.029743358 0.21647088 0.89858055
-0.02969455 0.21587518 0.89836717
-0.02990298 0.22262719 0.90126526
-0.029776283 0.22472945 0.90243369
-0.029763676 0.22529809 0.90271974
-0.029937714 0.23315629 0.90618777
-0.030036449 0.2321593 0.90557998
-0.030178055 0.23884539 0.90853989
-0.030100636 0.24062914 0.90948957
-0.029849544 0.2401128 0.90959436
-0.030211575 0.24961244 0.91357642
-0.030480944 0.24749534 0.91220295
-0.030883893 0.25799546 0.91660041
-0.030721128 0.25759709 0.91663849
-0.030830063 0.25892338 0.91711336
-0.030580617 0.26594609 0.92077506
-0.031722054 0.26520351 0.91883957
-0.030235589 0.27172676 0.92398316
-0.031255625 0.27429011 0.92377692
-0.030748405 0.28148001 0.92787552
-0.030935511 0.28145179 0.92760247
-0.030346483 0.28809327 0.93155581
-0.030484498 0.28966624 0.93210673
-0.030063361 0.28928038 0.93250936
-0.02914618 0.29595786 0.93693537
-0.029952623 0.29691827 0.93626899
-0.02927839 0.30634332 0.94165462
-0.029447325 0.30567694 0.94110554
-0.029257078 0.31232437 0.94450802
-0.02852096 0.31480241 0.94669992
-0.028765101 0.31267136 0.94535494
-0.028155338 0.32079211 0.95003539
-0.027652368 0.3215315 0.95108294
-0.027777508 0.32269099 0.95145655
-0.027454756 0.33062875 0.955652
-0.027720608 0.32857427 0.95431298
-0.033251569 0.16629291 0.87002039
-0.032720208 0.17064379 0.87281215
-0.032357663 0.17167178 0.87380099
-0.032675281 0.17956375 0.87708563
-0.030992255 0.18145242 0.88031429
-0.031435087 0.18570179 0.88170558
-0.029747471 0.18677463 0.88455534
-0.029952839 0.18870386 0.88518095
-0.029126465 0.19340743 0.88854909
-0.029778466 0.19527565 0.88852549
-0.02874893 0.1965923 0.89057684
-0.029134437 0.20265052 0.89290154
-0.029275209 0.20244685 0.89261001
-0.028874263 0.20829684 0.89592844
-0.029191971 0.21135755 0.89693224
-0.029536679 0.21909063 0.9001044
-0.029956549 0.22022507 0.9000569
-0.029168159 0.22562532 0.90370107
-0.029619485 0.22777376 0.90408862
-0.030120187 0.23574363 0.90715587
-0.030324847 0.23729986 0.90760636
-0.029959135 0.24250482 0.91057152
-0.02994708 0.24457029 0.91156334
-0.030079573 0.25256199 0.91515231
-0.030255087 0.25291574 0.91507542
-0.031044684 0.26165465 0.91810483
-0.031056508 0.2605274 0.91755611
-0.031706862 0.26833424 0.92033863
-0.030751757 0.27026278 0.92257529
-0.03095305 0.27630627 0.92514908
-0.030505359 0.2772181 0.92620111
-0.030160882 0.27984312 0.92791867
-0.02978155 0.28426751 0.93053401
-0.030043833 0.28580377 0.93089521
-0.029615007 0.29309723 0.93493384
-0.030091166 0.29545116 0.93538398
-0.029914886 0.30163556 0.93854839
-0.029408082 0.30113438 0.93901545
-0.029138573 0.3089973 0.94310182
-0.029244408 0.30906224 0.94298559
-0.029160798 0.31732735 0.94700354
-0.028868631 0.32647774 0.95172906
-0.028726649 0.3249591 0.95120925
-0.028943278 0.3313922 0.95394558
-0.027989008 0.33293322 0.95599812
-0.027565792 0.33298445 0.9566099
-0.031495959 0.1854202 0.88148791
-0.031259283 0.19257335 0.88519371
-0.030584782 0.19127499 0.88551724
-0.029006734 0.19160196 0.8878628
-0.030113116 0.19755369 0.88913649
-0.028999701 0.19851354 0.89113557
-0.028701141 0.19970927 0.8921147
-0.028927773 0.20688125 0.89518583
-0.028583854 0.20615172 0.89531898
-0.029415429 0.21396402 0.8978526
-0.028811663 0.21437731 0.89888585
-0.028217673 0.21526505 0.90012985
-0.028462544 0.22283807 0.90336502
-0.028854623 0.22257864 0.90269816
-0.029699534 0.23072028 0.90536845
-0.029231012 0.23119138 0.90624148
-0.028742954 0.23202401 0.90731221
-0.029629156 0.23925951 0.90949756
-0.029391453 0.23927508 0.90983498
-0.029544279 0.24780114 0.91364795
-0.030485913 0.25650927 0.91645145
-0.029802077 0.25619799 0.91725409
-0.030897215 0.26452771 0.91966581
-0.030747995 0.26461202 0.91991287
-0.030948557 0.27213177 0.92318434
-0.030776784 0.27410457 0.92435426
-0.030841753 0.28138483 0.92770106
-0.031002924 0.28127873 0.92742711
-0.030885279 0.28867191 0.93108088
-0.029886894 0.2890242 0.9326334
-0.030615643 0.29473919 0.93431967
-0.02969119 0.29669356 0.93652588
-0.028989553 0.2965647 0.93743932
-0.029756553 0.30386591 0.93982112
-0.029550537 0.30532312 0.94079518
-0.029684089 0.31330618 0.94437855
-0.028969273 0.31219709 0.94484758
-0.029359758 0.32077655 0.94835567
-0.028542541 0.32096335 0.94957846
-0.028405204 0.32154375 0.95004326
-0.028952368 0.32894951 0.95277983
-0.028653249 0.32873717 0.95309478
-0.029985085 0.19776955 0.8894161
-0.030302241 0.19644377 0.88834971
-0.02977173 0.20497787 0.8931154
-0.029984608 0.20250306 0.89165151
-0.029948428 0.21117248 0.89579439
-0.028795362 0.20988768 0.89678901
-0.029471442 0.21998209 0.90061581
-0.02908501 0.21812415 0.90027517
-0.028661847 0.22018237 0.90183449
-0.029627204 0.22613727 0.90330523
-0.029312104 0.2273716 0.90432566
-0.028637648 0.22590974 0.90457201
-0.029511213 0.23567636 0.90796977
-0.029529318 0.23487875 0.90756804
-0.028934494 0.23625782 0.90904504
-0.029840618 0.24403787 0.91145974
-0.029336274 0.24332553 0.91182387
-0.030112535 0.25277478 0.91520685
-0.029501051 0.25133765 0.91537744
-0.029231936 0.25379467 0.91691113
-0.030718252 0.26008207 0.91781557
-0.030556589 0.26023102 0.91811031
-0.03042075 0.25964516 0.91802233
-0.030793726 0.26865125 0.92175627
-0.030598283 0.26819971 0.92181456
-0.030679151 0.27700752 0.9258604
-0.030375756 0.27664441 0.92611015
-0.03116411 0.285604 0.92924523
-0.030684665 0.28483629 0.92954856
-0.031268395 0.29251948 0.93236518
-0.030750632 0.2934182 0.93350852
-0.030451223 0.2931298 0.93378812
-0.029835366 0.30119917 0.93845284
-0.029753372 0.30117419 0.93855488
-0.029522024 0.30101398 0.93880039
-0.029679269 0.30976343 0.94271266
-0.029400371 0.30886218 0.9426744
-0.029790901 0.31680825 0.94588351
-0.029656731 0.31766337 0.94647354
-0.028977171 0.31707293 0.94713831
-0.029963255 0.32603192 0.94999868
-0.029046066 0.32454956 0.95057243
-0.028409451 0.32575962 0.95202762
-0.029533431 0.33201095 0.95341814
-0.029429123 0.33361888 0.9543221
-0.028587267 0.33256668 0.95499432
-0.032054618 0.22607893 0.89990717
-0.030195147 0.22382618 0.9014256
-0.031591624 0.23219755 0.90343863
-0.030230284 0.2312471 0.90488029
-0.029050633 0.23179521 0.90677708
-0.029895395 0.2395393 0.90925992
-0.029324189 0.2386997 0.90965676
-0.029678836 0.24561742 0.91243011
-0.029433116 0.24722603 0.91353083
-0.03010124 0.25636545 0.91691774
-0.030035883 0.25658596 0.91711259
-0.030681133 0.26384175 0.91964215
-0.030245766 0.2645779 0.9205941
-0.03016153 0.26682582 0.92177224
-0.030058444 0.27258253 0.9246332
-0.030113131 0.27263448 0.92458177
-0.030796334 0.28085369 0.92751336
-0.030570045 0.28089589 0.92784745
-0.031017348 0.2895146 0.93129528
-0.030774668 0.28979152 0.93176299
-0.031236127 0.29656562 0.93432033
-0.030715659 0.29777765 0.93561518
-0.030526958 0.29852611 0.93623054
-0.030349657 0.30586457 0.93994123
-0.029829383 0.30518082 0.9403407
-0.030976377 0.31190261 0.94192153
-0.029968098 0.31353718 0.94409329
-0.029385053 0.31325722 0.94477063
-0.030524075 0.32119599 0.94693685
-0.029677466 0.32140249 0.94820988
-0.029841773 0.32915652 0.95164251
-0.030014567 0.32909137 0.95137179
-0.029639676 0.33526015 0.95480466
-0.030452937 0.23803803 0.90777701
-0.030829027 0.23971787 0.90804785
-0.029700026 0.24431884 0.91178763
-0.029299513 0.25084257 0.91542363
-0.028704867 0.25229052 0.91693294
-0.029577896 0.26032656 0.91951454
-0.029413491 0.25896987 0.91910219
-0.030357242 0.26728588 0.92171776
-0.029573709 0.26831836 0.92329323
-0.030120015 0.26964143 0.92315918
-0.029521599 0.27650818 0.92723191
-0.029896706 0.27601928 0.92648029
-0.030279219 0.28331727 0.92939448
-0.030306906 0.28445578 0.92989349
-0.030841514 0.29208708 0.93275392
-0.030850619 0.29302254 0.93318284
-0.030016929 0.29880345 0.93706965
-0.030312747 0.30117658 0.93777919
-0.030676648 0.30246079 0.93788022
-0.030401319 0.30909789 0.94139588
-0.030394018 0.30826855 0.94101447
-0.030650303 0.31551388 0.9440791
-0.03063678 0.31670028 0.94465798
-0.030416109 0.31784251 0.94550359
-0.030367427 0.32554379 0.94920707
-0.030265644 0.32446307 0.948838
-0.029784746 0.3322497 0.95318192
-0.029523626 0.33319643 0.95399153
-0.028840035 0.25738618 0.91915089
-0.029900894 0.26357573 0.92059982
-0.029987752 0.26297662 0.92019653
-0.031402841 0.2724176 0.92268842
-0.031060308 0.27178052 0.92286336
-0.029475227 0.27414489 0.92618066
-0.032758653 0.27758154 0.92324376
-0.030527204 0.27977762 0.92737901
-0.029455796 0.2793932 0.92868537
-0.029996231 0.28758031 0.93179995
-0.029730693 0.28920746 0.93293691
-0.029830128 0.29612586 0.93606502
-0.029980004 0.2958917 0.93574631
-0.030065805 0.30183315 0.93843204
-0.029703975 0.30434787 0.94012177
-0.029657543 0.30558646 0.94077098
-0.03006731 0.31241748 0.94342685
-0.030395687 0.31244019 0.94298154
-0.030493155 0.32050794 0.94665498
-0.030102849 0.32149711 0.94766396
-0.03013283 0.3282477 0.95080924
-0.02994746 0.32869217 0.95127654
-0.029482774 0.3352899 0.95503646
-0.030269995 0.28471896 0.93006909
-0.030233413 0.29096875 0.9330703
-0.029271126 0.29261413 0.93518335
-0.030496374 0.29951736 0.93674099
-0.02960746 0.29941174 0.93792534
-0.03003785 0.30612028 0.94049484
-0.029828295 0.30779836 0.94157803
-0.029528826 0.30780694 0.94199806
-0.030022874 0.31656653 0.94544733
-0.030100822 0.31496102 0.94458103
-0.029963583 0.32275102 0.94844931
-0.030165762 0.32410008 0.94880545
-0.029838026 0.3260383 0.95017564
-0.030624509 0.33253148 0.95214891
-0.029803291 0.33237353 0.95321459
-0.029937983 0.30552801 0.94035399
-0.02990301 0.31239918 0.94364631
-0.029179409 0.31348035 0.94516146
-0.030672029 0.32044792 0.94637841
-0.029779136 0.31980577 0.94731498
-0.030544594 0.32774863 0.95000201
-0.029624447 0.32836547 0.95157087
-0.029199123 0.32868895 0.95231408
-0.029993281 0.33662632 0.95495862
-0.029680684 0.33576864 0.9549877
-0.029991582 0.33264709 0.95308232
