# .PCD v0.7 - Point Cloud Data file format
VERSION 0.7
FIELDS x y z
SIZE 4 4 4
TYPE F F F
COUNT 1 1 1
WIDTH 353
HEIGHT 1
VIEWPOINT 0 0 0 1 0 0 0
POINTS 353
DATA ascii
-0.23426107 0.24934544 1.0873049
-0.23996459 0.24416067 1.0915636
-0.23336904 0.2463596 1.0855023
-0.23131138 0.2539435 1.0856764
-0.25350982 0.2388162 1.1037636
-0.24537677 0.24266692 1.0966303
-0.23780945 0.2458055 1.0898603
-0.23329006 0.24866571 1.0861123
-0.23072006 0.25655633 1.0858562
-0.23020524 0.25713831 1.0855061
-0.26835659 0.2332266 1.1172162
-0.25312382 0.2389596 1.1034133
-0.2364057 0.24692549 1.0887655
-0.28005213 0.22591546 1.126943
-0.27258328 0.22922803 1.1203253
-0.26120695 0.23582987 1.1107115
-0.26396072 0.23529658 1.1133574
-0.24563323 0.24285422 1.0969477
-0.23066837 0.25013459 1.0838809
-0.22778186 0.25374073 1.0820198
-0.29266852 0.22106577 1.1383448
-0.28470394 0.22544158 1.1315404
-0.27674863 0.22826959 1.1242821
-0.26986703 0.23210298 1.1184187
-0.25991416 0.23641716 1.1095701
-0.25237837 0.24044602 1.1030989
-0.25495392 0.23783687 1.1049416
-0.24579531 0.24118388 1.0966128
-0.23679593 0.24570502 1.0887977
-0.22944239 0.25220308 1.0832511
-0.29977313 0.21842459 1.1447923
-0.24196205 0.24242759 1.0930797
-0.23269749 0.24483848 1.0843627
-0.22788219 0.24973407 1.0809224
-0.30940115 0.2131253 1.1530149
-0.30367583 0.21472839 1.1476618
-0.29393139 0.2223431 1.1400139
-0.28543168 0.2257873 1.1323853
-0.27780068 0.22941922 1.125698
-0.26986751 0.23264816 1.1185824
-0.26185939 0.23557559 1.1113001
-0.25405902 0.23738334 1.1038941
-0.24636412 0.24128014 1.0972211
-0.23882583 0.24314493 1.0900992
-0.23266494 0.24665949 1.0848747
-0.2286098 0.2550683 1.0832608
-0.22929817 0.25749889 1.0846896
-0.32453215 0.21077497 1.167727
-0.31669429 0.21149661 1.1599578
-0.31013155 0.21465598 1.1542174
-0.30383086 0.21942773 1.1492267
-0.29444337 0.22197184 1.1404244
-0.28696975 0.22406393 1.1334364
-0.28163144 0.22555828 1.128445
-0.29878816 0.22161287 1.1447433
-0.29210976 0.22398952 1.1386509
-0.28486934 0.22559103 1.1317537
-0.27682167 0.22860205 1.124456
-0.26957476 0.23281637 1.1183345
-0.26112926 0.23597673 1.1106764
-0.2541092 0.23807776 1.1041532
-0.24643832 0.2418462 1.0974661
-0.23784356 0.24545167 1.0897892
-0.2310468 0.25080284 1.0844666
-0.22922674 0.25995684 1.0853529
-0.33111513 0.20711058 1.1733367
-0.31598741 0.21327053 1.1597687
-0.30830115 0.21700376 1.1530554
-0.30005443 0.21929374 1.1453391
-0.27887034 0.22990024 1.1269319
-0.27486178 0.23196687 1.1234666
-0.26737341 0.23398642 1.1164421
-0.25786641 0.23607972 1.1073829
-0.25236231 0.23995875 1.1029365
-0.24545783 0.24294049 1.0967948
-0.23652378 0.24660587 1.0887902
-0.3507776 0.19807047 1.1906626
-0.34181675 0.20199008 1.1827066
-0.33453363 0.20261756 1.1754744
-0.32814577 0.20583867 1.1699307
-0.29319763 0.22324531 1.1395363
-0.28595704 0.22772694 1.1335012
-0.27916384 0.22923416 1.1270314
-0.27043343 0.23052652 1.1185237
-0.26385146 0.23355493 1.1127247
-0.25785869 0.23727703 1.1077335
-0.23089546 0.2515161 1.0845259
-0.22832105 0.25369585 1.0825557
-0.35536042 0.19630913 1.1948043
-0.34413245 0.20046529 1.1846094
-0.33894649 0.2021479 1.1798296
-0.33375844 0.20535472 1.1755042
-0.33026522 0.20679873 1.1723773
-0.32480279 0.2093299 1.16757
-0.31534851 0.21270776 1.1589493
-0.30903828 0.21667795 1.1537088
-0.29980746 0.22171612 1.1458127
-0.29267582 0.22377691 1.1391639
-0.28501448 0.22498752 1.1317209
-0.27680612 0.22797309 1.1242518
-0.2694335 0.231186 1.1177025
-0.26199913 0.23578262 1.1115043
-0.25295365 0.24093194 1.1038303
-0.24523312 0.24280828 1.0965264
-0.24000666 0.24404046 1.0915704
-0.23227406 0.24660972 1.0844616
-0.22795534 0.24852979 1.0806365
-0.23520592 0.24693936 1.0875472
-0.22865602 0.2545858 1.0831634
-0.22737139 0.25603485 1.0822885
-0.37098676 0.18866198 1.2084352
-0.36339325 0.19321632 1.2020624
-0.35549265 0.19577731 1.1947799
-0.34759051 0.19887519 1.1876565
-0.34013075 0.20263642 1.1811825
-0.32786894 0.20968911 1.1708014
-0.32062089 0.21171804 1.1640245
-0.31324011 0.21574511 1.1577104
-0.30784824 0.21870595 1.1531037
-0.30043745 0.22000965 1.1459436
-0.29253411 0.22265969 1.138685
-0.27720112 0.22916603 1.1250114
-0.26867408 0.23146948 1.1170136
-0.26149788 0.23710589 1.1113899
-0.25397009 0.2402741 1.104669
-0.24588995 0.24125643 1.0967309
-0.23865731 0.24285468 1.0898407
-0.23013029 0.24688859 1.082361
-0.22791791 0.25895774 1.0837202
-0.38279518 0.1836192 1.2189561
-0.37817821 0.18516028 1.2147136
-0.3329702 0.20767663 1.1753961
-0.3255204 0.20984788 1.1684562
-0.31943199 0.21305487 1.1632134
-0.31289878 0.21552384 1.1572964
-0.30149317 0.21866429 1.1466163
-0.29780748 0.21990521 1.1432329
-0.28632009 0.22629419 1.1334423
-0.39549887 0.17966893 1.2307161
-0.3873612 0.18182515 1.223071
-0.37830716 0.18680464 1.2153373
-0.37359381 0.18858451 1.2110682
-0.36545244 0.19039589 1.2033159
-0.35887891 0.19264005 1.1972905
-0.37041274 0.19116835 1.2086008
-0.36210731 0.19269495 1.2005962
-0.35462862 0.19567268 1.1938683
-0.34795526 0.2001017 1.1883951
-0.34011561 0.20365056 1.1814706
-0.33245045 0.2066924 1.174572
-0.32469946 0.20925942 1.1674436
-0.31657803 0.21340622 1.1604109
-0.3094497 0.21634834 1.1540293
-0.30104157 0.21933195 1.1463562
-0.29164064 0.22443871 1.1383073
-0.28511879 0.22605294 1.1321461
-0.27985692 0.22782473 1.1273156
-0.27453318 0.23106806 1.1228628
-0.26963416 0.2345269 1.1189071
-0.26229498 0.2368708 1.1121316
-0.25605553 0.23840009 1.1062325
-0.24721795 0.23983248 1.0976576
-0.40978241 0.17368408 1.2434765
-0.40246141 0.17491162 1.2363852
-0.3946498 0.1799203 1.2299262
-0.38679335 0.18183614 1.2224957
-0.37962741 0.18473631 1.2160631
-0.37207252 0.18790051 1.2093134
-0.36332029 0.19163516 1.2015146
-0.35713136 0.19629215 1.1966035
-0.35389903 0.19903146 1.1941304
-0.34620059 0.20141627 1.1870011
-0.33913678 0.20363384 1.1804683
-0.33139533 0.20591733 1.1732649
-0.3245182 0.2105348 1.1676407
-0.30131122 0.21932065 1.1466275
-0.29296225 0.22219738 1.1389828
-0.27143663 0.2299848 1.1193837
-0.27731025 0.23367244 1.1264719
-0.26396355 0.23161423 1.1122578
-0.26099539 0.2342591 1.1100256
-0.41643348 0.17114401 1.2494923
-0.3493824 0.19869176 1.1894273
-0.34205151 0.20119561 1.182708
-0.33384031 0.20288746 1.1748488
-0.33051392 0.20584531 1.1723453
-0.32820112 0.20887505 1.1708961
-0.3218514 0.21056327 1.1649324
-0.31732434 0.21317267 1.1611013
-0.31177205 0.21570505 1.1562028
-0.28549281 0.22782567 1.1330578
-0.27774334 0.23142725 1.1262408
-0.42788187 0.16692622 1.2598933
-0.41798803 0.16953774 1.2505952
-0.41033185 0.17362913 1.24402
-0.403375 0.17567365 1.2375442
-0.39707407 0.17755309 1.2316874
-0.38716286 0.18155076 1.2227865
-0.37888163 0.18462163 1.215269
-0.37137789 0.1887309 1.2088543
-0.36432526 0.19426015 1.2033243
-0.35694686 0.19711369 1.1966615
-0.34920195 0.19961922 1.1895211
-0.34034163 0.20197323 1.1811987
-0.33345646 0.2063181 1.1754849
-0.32637492 0.20890817 1.1690456
-0.318708 0.21138994 1.1619774
-0.31175947 0.21436326 1.1557883
-0.30750993 0.21660957 1.1521313
-0.30071992 0.22042337 1.1463553
-0.29204527 0.22375724 1.1385156
-0.28445664 0.2270005 1.1317552
-0.44004291 0.15942734 1.2700381
-0.43408301 0.16379836 1.2652746
-0.41830498 0.17099467 1.2513542
-0.41086 0.17289257 1.2443376
-0.41857895 0.17540616 1.2529542
-0.39959392 0.17846954 1.2345291
-0.39214218 0.18092698 1.2276729
-0.38783145 0.18167891 1.2235061
-0.38185859 0.18456343 1.2182846
-0.37830552 0.18687044 1.2153553
-0.37069708 0.19173554 1.2090603
-0.36274469 0.19329017 1.2014236
-0.35449558 0.19740294 1.1942506
-0.34748459 0.20052852 1.1880436
-0.33848947 0.20374127 1.179841
-0.33070135 0.20740904 1.1730045
-0.32406592 0.21003227 1.1670295
-0.31652725 0.21404526 1.1605505
-0.30844647 0.21721977 1.1532681
-0.29986745 0.21935102 1.1451658
-0.29647702 0.22093116 1.1421846
-0.2929658 0.22334948 1.1393313
-0.44198862 0.1547761 1.270628
-0.44542173 0.15492168 1.2741692
-0.43982348 0.15447833 1.268333
-0.45030457 0.15852304 1.2802221
-0.4450869 0.15859224 1.274927
-0.43898422 0.15960492 1.2690127
-0.42770991 0.16807187 1.2600611
-0.42429921 0.16530991 1.2557594
-0.42405328 0.17434946 1.2582152
-0.37996072 0.1886493 1.2175742
-0.37526143 0.19022565 1.2132585
-0.36650777 0.1934424 1.2053032
-0.36101574 0.19597524 1.2004662
-0.31656712 0.20697965 1.1584759
-0.30910426 0.21474503 1.1531974
-0.43558577 0.15807877 1.2650934
-0.42780194 0.16111101 1.2580709
-0.43216762 0.16467296 1.2635851
-0.41701519 0.16988763 1.2497088
-0.41004175 0.17390199 1.243806
-0.40224195 0.17665754 1.2366844
-0.39431 0.17981625 1.2295489
-0.38697049 0.1838607 1.2232822
-0.37997034 0.18790583 1.2173615
-0.3721779 0.19108887 1.2103753
-0.36556023 0.19410168 1.2045351
-0.36025673 0.19597609 1.1996931
-0.35462919 0.19968452 1.1950698
-0.3468459 0.20262213 1.1880196
-0.33886731 0.20562214 1.1807891
-0.33146787 0.20748486 1.1738081
-0.32438523 0.20370549 1.1654608
-0.32335618 0.21058179 1.1664709
-0.4367215 0.15904491 1.2665398
-0.43354216 0.15923184 1.2633566
-0.42737082 0.16426343 1.2585754
-0.41909629 0.1684608 1.2514019
-0.42747128 0.16644302 1.2593304
-0.42228693 0.16911891 1.2548497
-0.41555145 0.17133901 1.248652
-0.40920091 0.17386667 1.2429388
-0.40144554 0.17649786 1.2358252
-0.39458516 0.17958759 1.2297609
-0.38667679 0.18450327 1.2231754
-0.37799224 0.18799146 1.2153717
-0.37168729 0.19150731 1.2100008
-0.36540899 0.19648288 1.205094
-0.35930216 0.19900441 1.1996272
-0.35329652 0.20174743 1.1943296
-0.34618232 0.2032184 1.1875221
-0.3363719 0.20537889 1.1781739
-0.33231288 0.20488045 1.1738893
-0.40691584 0.17174411 1.2399753
-0.35678339 0.18803926 1.1937782
-0.41368845 0.17424682 1.2476245
-0.40772608 0.17591587 1.2420497
-0.39995858 0.17846875 1.2349004
-0.39344794 0.18162695 1.2292128
-0.35261142 0.19529513 1.1917
-0.36410117 0.19597416 1.2036092
-0.35692212 0.1979211 1.1968781
-0.34260333 0.20115438 1.1832578
-0.43447933 0.16107765 1.264864
-0.42649773 0.16638058 1.2583197
-0.41889736 0.16988599 1.2516259
-0.41069001 0.17226154 1.2439753
-0.40457681 0.17572123 1.238783
-0.39950594 0.17984936 1.2348526
-0.38891265 0.18250722 1.2248557
-0.38508853 0.18388522 1.2213721
-0.36191607 0.18848717 1.1991415
-0.38592631 0.18404245 1.2222728
-0.37839434 0.1884905 1.2159308
-0.37114629 0.19194154 1.2095796
-0.36430955 0.1936762 1.2031336
-0.34825695 0.20005864 1.1886897
-0.43527839 0.16111502 1.2656893
-0.42769632 0.16682634 1.2596744
-0.41928083 0.16899177 1.2517488
-0.41029891 0.17290395 1.2437693
-0.39816311 0.18210995 1.2341613
-0.39552936 0.18061265 1.2310296
-0.38383651 0.18648055 1.2208736
-0.37193835 0.18916313 1.2095547
-0.37756079 0.18852548 1.2150921
-0.43865392 0.15711857 1.2679318
-0.43717039 0.1619143 1.2678561
-0.40479016 0.17816302 1.2397313
-0.38870424 0.1836151 1.224975
-0.38160622 0.18636389 1.2185664
-0.43949485 0.15951131 1.2695049
-0.435054 0.16360845 1.2662071
-0.4272092 0.16665056 1.2591255
-0.42870426 0.16431096 1.2599481
-0.41884142 0.17028202 1.2516875
-0.41071728 0.17375669 1.2444507
-0.38799655 0.18149066 1.2236179
-0.40417123 0.17799063 1.2390491
-0.39659691 0.18048471 1.232079
-0.44707733 0.15871513 1.2769916
-0.4419713 0.158852 1.2718306
-0.43549818 0.16137198 1.26599
-0.42780188 0.16780461 1.2600749
-0.41922933 0.17295605 1.2528832
-0.41915232 0.17071934 1.252135
-0.41061151 0.17597255 1.2450063
-0.40498942 0.17583284 1.2392367
-0.3954607 0.17540795 1.2294016
-0.44559327 0.1586362 1.2754561
-0.43755263 0.16133337 1.2680717
-0.43290246 0.16404372 1.2641454
-0.41755909 0.16793987 1.2496798
-0.41174126 0.17101476 1.244673
-0.42579305 0.17092176 1.2589614
-0.4137395 0.17207372 1.247026
-0.42106587 0.16109982 1.2512047
-0.42622775 0.16715699 1.2582772
-0.43893057 0.16432177 1.2703701
-0.43357015 0.16378254 1.2647474
