# .PCD v0.7 - Point Cloud Data file format
VERSION 0.7
FIELDS x y z
SIZE 4 4 4
TYPE F F F
COUNT 1 1 1
WIDTH 269
HEIGHT 1
VIEWPOINT 0 0 0 1 0 0 0
POINTS 269
DATA ascii
-0.21189655 0.24534056 1.0979033
-0.2057588 0.24338105 1.1044559
-0.19625358 0.2404611 1.1143026
-0.18764488 0.23913126 1.1197659
-0.19798866 0.24126041 1.1118054
-0.18838428 0.24033028 1.1164459
-0.20033754 0.24224152 1.1086901
-0.20682399 0.24361238 1.1036046
-0.20841856 0.24437195 1.1012437
-0.20216045 0.24287397 1.1066114
-0.21241708 0.24464227 1.0996192
-0.18080224 0.23676412 1.127551
-0.18100831 0.23766977 1.125124
-0.19316588 0.23980816 1.1167245
-0.20377003 0.24228588 1.1077887
-0.20604892 0.24312313 1.1050674
-0.20728225 0.24339762 1.104064
-0.17185219 0.23520875 1.1336848
-0.17326157 0.23633823 1.1303943
-0.182134 0.23859794 1.1224273
-0.19476104 0.24010578 1.1155777
-0.18387024 0.2392675 1.1202708
-0.19614503 0.24096549 1.1130021
-0.18807681 0.23850363 1.1213163
-0.1971319 0.24203789 1.1099583
-0.2077955 0.24421142 1.1018082
-0.21083593 0.24534757 1.0981272
-0.15687145 0.23093008 1.1483541
-0.16487728 0.23284172 1.1414999
-0.16678362 0.23391455 1.1382447
-0.16848333 0.23457372 1.1361238
-0.17545767 0.23659946 1.1292057
-0.17830932 0.23686923 1.1278448
-0.1817226 0.23707244 1.1265303
-0.18863299 0.23906133 1.1197236
-0.19071853 0.2397678 1.1173902
-0.20152408 0.24179347 1.1095961
-0.19232719 0.23997946 1.1164662
-0.20307468 0.24268821 1.1068904
-0.20427237 0.24376754 1.1037803
-0.20624761 0.24444073 1.1015594
-0.1488177 0.22723144 1.1599151
-0.1491818 0.22881724 1.1556646
-0.15990408 0.23148084 1.1462132
-0.16166098 0.23210134 1.144181
-0.17111394 0.23459676 1.1354618
-0.17434379 0.23471977 1.1344
-0.17810294 0.23687524 1.1278762
-0.18229608 0.23897019 1.121412
-0.18580031 0.23886725 1.1208813
-0.19533123 0.24083 1.1135441
-0.18791185 0.23894021 1.1202067
-0.19769126 0.24183911 1.1103528
-0.19828424 0.24174695 1.1104592
-0.20719673 0.2451627 1.0994453
-0.20981599 0.24474148 1.0999532
-0.21012869 0.24607913 1.0963666
-0.14348468 0.22704782 1.1616172
-0.15151355 0.22954834 1.1532102
-0.1429038 0.22795087 1.1593769
-0.15312766 0.23014857 1.1512638
-0.16400205 0.232409 1.1428372
-0.15434793 0.23085856 1.149119
-0.16455579 0.23321198 1.1406004
-0.16687921 0.23380557 1.1385093
-0.1786155 0.23657365 1.1285515
-0.17926455 0.23746561 1.1260591
-0.18031302 0.23788093 1.1247281
-0.18951511 0.23903322 1.1195958
-0.18926413 0.24012008 1.1167971
-0.1910733 0.24137044 1.1130975
-0.20018144 0.24301054 1.106705
-0.20271547 0.24340442 1.1050905
-0.20557223 0.24379505 1.1034107
-0.13271813 0.22249526 1.1760424
-0.12944764 0.22272789 1.1761791
-0.13651308 0.22419417 1.1707103
-0.13824995 0.22533718 1.1673094
-0.14130984 0.2270309 1.1621588
-0.14567336 0.22832224 1.1577677
-0.14819635 0.22880949 1.1559104
-0.15288273 0.22988728 1.1520065
-0.15740258 0.2311101 1.1477596
-0.15694602 0.2313035 1.1473556
-0.1695908 0.23324949 1.1393507
-0.1712527 0.23380703 1.1375054
-0.16346611 0.23249051 1.1427455
-0.17194991 0.23448969 1.1355519
-0.1652682 0.23328908 1.1402349
-0.17470954 0.23591097 1.1311861
-0.18284221 0.2376117 1.1248572
-0.17996645 0.23811923 1.124181
-0.18173331 0.23832448 1.1232377
-0.19661607 0.24120887 1.1122547
-0.18937513 0.23991001 1.1173238
-0.19889183 0.24145079 1.1110985
-0.19009976 0.24071684 1.1150377
-0.2071071 0.2433632 1.1041946
-0.20708907 0.24466619 1.1007746
-0.20159647 0.2425724 1.1075327
-0.21117035 0.24483201 1.0994056
-0.20283879 0.24338762 1.1051064
-0.12242284 0.2202343 1.1843381
-0.13123517 0.22229755 1.1769011
-0.12267284 0.22099681 1.1822772
-0.13204089 0.2233675 1.1739053
-0.12328497 0.22196119 1.179603
-0.13457456 0.22385606 1.172042
-0.14387926 0.22691073 1.1618872
-0.14559853 0.22738191 1.1602559
-0.14583947 0.2285749 1.1570657
-0.15456206 0.23018193 1.1508482
-0.15660499 0.23073097 1.1489383
-0.16276182 0.23219191 1.1436913
-0.15892249 0.2324902 1.1437852
-0.1672534 0.2343547 1.1369807
-0.1700969 0.23467621 1.1354855
-0.18027045 0.23726618 1.1263531
-0.18200669 0.23812214 1.1237068
-0.19304696 0.24053018 1.1148545
-0.18373761 0.23859586 1.1220663
-0.19467363 0.24105814 1.1130949
-0.11178112 0.21876986 1.1906198
-0.11395169 0.21876487 1.1901367
-0.12576464 0.22207564 1.1787353
-0.13762252 0.22424445 1.1703244
-0.1396295 0.22499281 1.1678989
-0.14915034 0.22816409 1.1573882
-0.150079 0.22934145 1.1540819
-0.15118992 0.23059896 1.1505233
-0.16116795 0.23233102 1.1436901
-0.1718578 0.23520534 1.1336925
-0.17087074 0.23592363 1.1320305
-0.17383341 0.23634024 1.1302583
-0.18529928 0.23847596 1.1220242
-0.18867707 0.23884964 1.1202698
-0.10210063 0.21469882 1.2035315
-0.10772483 0.21692938 1.196384
-0.11560847 0.219035 1.1890479
-0.11028214 0.21752493 1.194234
-0.11273456 0.2176832 1.1932575
-0.12893772 0.22069746 1.1816313
-0.12038033 0.21947375 1.1868038
-0.1264967 0.22098032 1.1814462
-0.12228757 0.22127351 1.1816382
-0.13237973 0.22273815 1.1754816
-0.13364196 0.22331643 1.1736733
-0.13834773 0.22447971 1.1695405
-0.14202964 0.22643949 1.1635485
-0.14336441 0.22756243 1.1602924
-0.14647391 0.22863658 1.1567585
-0.15177101 0.23037605 1.1509762
-0.15125297 0.22988132 1.1523948
-0.16065562 0.23140122 1.1462507
-0.16401426 0.23267916 1.1421244
-0.16436295 0.23452476 1.1371948
-0.15867303 0.23261833 1.1435056
-0.1687497 0.23459482 1.1360075
-0.16088925 0.23294772 1.1421332
-0.17590086 0.23613648 1.130321
-0.17618757 0.23558247 1.1317112
-0.089611419 0.21141922 1.2150056
-0.083014496 0.21013951 1.219877
-0.092959158 0.21194607 1.2128557
-0.10120908 0.2141515 1.2051736
-0.092374325 0.21268369 1.211051
-0.10279625 0.21508427 1.2023596
-0.11523791 0.21742095 1.1933742
-0.10538098 0.21565843 1.2002597
-0.11502277 0.21766734 1.192776
-0.11677184 0.21875893 1.1895074
-0.12722084 0.22068834 1.1820478
-0.13345079 0.22235839 1.1762347
-0.13774884 0.22423378 1.1703236
-0.13929307 0.225481 1.166693
-0.14050303 0.22698727 1.1624579
-0.14892726 0.22836803 1.1569033
-0.14969152 0.22945186 1.1538804
-0.1523602 0.23012075 1.1515124
-0.16323318 0.23210619 1.1438087
-0.1653289 0.23266426 1.141863
-0.082389362 0.21088603 1.2180582
-0.080922015 0.2122007 1.2149389
-0.092738807 0.21315955 1.2097172
-0.096611425 0.21334995 1.2083312
-0.10649919 0.21570909 1.1998708
-0.10886399 0.21593657 1.1987323
-0.11710846 0.21906731 1.1886201
-0.11893871 0.22004905 1.1856216
-0.12912181 0.2225116 1.1768218
-0.12094273 0.22123197 1.1820549
-0.13008231 0.22317801 1.1748511
-0.13313887 0.22419237 1.1714865
-0.14200696 0.22735269 1.1611538
-0.14379004 0.22755055 1.1602262
-0.15308538 0.2299269 1.1518559
-0.14477032 0.22819278 1.1583142
-0.15589714 0.23009484 1.1507717
-0.086554632 0.21153101 1.2154108
-0.079213127 0.21118887 1.2179887
-0.079496346 0.21095905 1.2185279
-0.088998124 0.2116667 1.2144955
-0.099836141 0.21354735 1.2070752
-0.090988025 0.21235153 1.2122409
-0.10193804 0.21448356 1.2041343
-0.10195051 0.21588159 1.2004577
-0.10488728 0.21657085 1.1979749
-0.11145507 0.21826139 1.1920307
-0.11202931 0.21909136 1.1897182
-0.11450808 0.21994989 1.1868953
-0.12254327 0.22174893 1.1803304
-0.12446581 0.22195263 1.1793555
-0.12612909 0.22293222 1.1764009
-0.13393925 0.22448064 1.1705459
-0.13475645 0.22587766 1.166688
-0.13859883 0.22650726 1.1641549
-0.081137247 0.2115299 1.2166525
-0.08369951 0.21032844 1.2192239
-0.079265878 0.20995291 1.2212245
-0.093523398 0.21312615 1.2096256
-0.094693787 0.21368077 1.2079005
-0.097495422 0.21376644 1.2070347
-0.10268237 0.21645065 1.1987948
-0.11711664 0.22025391 1.1854999
-0.10843285 0.218042 1.1932982
-0.1197569 0.22102612 1.1828669
-0.12921737 0.22362195 1.1738822
-0.12882538 0.2250379 1.170251
-0.13189298 0.22339386 1.1738697
-0.085113898 0.21058047 1.2182382
-0.076760553 0.20978069 1.22225
-0.083808117 0.21097028 1.2175124
-0.076346949 0.20991063 1.2220031
-0.090585381 0.21256156 1.211781
-0.094107524 0.21284789 1.2102232
-0.10161124 0.21629724 1.199443
-0.10356473 0.21652837 1.1983889
-0.10896802 0.2171336 1.195563
-0.11424728 0.21883349 1.1898887
-0.11612494 0.21942827 1.1878964
-0.10642126 0.21734278 1.1955956
-0.12253891 0.2208371 1.1827275
-0.11633614 0.21916446 1.1885413
-0.12417208 0.22231588 1.178468
-0.11806672 0.21991557 1.1861718
-0.084717803 0.21094608 1.217368
-0.08453016 0.21192156 1.2148474
-0.084959194 0.21235521 1.2136098
-0.094585739 0.21394555 1.2072294
-0.099029824 0.21453369 1.2046676
-0.099655397 0.21576767 1.2012819
-0.099256195 0.2159594 1.2008693
-0.10890886 0.21755953 1.1944572
-0.11226727 0.21774444 1.1932032
-0.080418505 0.20787424 1.2264235
-0.078113921 0.20844643 1.2254468
-0.080809094 0.21093391 1.2182938
-0.091381244 0.21180369 1.2135906
-0.083477095 0.21113542 1.2171541
-0.092068471 0.21254742 1.2114791
-0.093970254 0.21403076 1.2071463
-0.1033487 0.21545026 1.2012715
-0.10590059 0.21584803 1.1996427
-0.081625462 0.21096548 1.218024
-0.081333071 0.21013197 1.2202814
-0.087838113 0.21107763 1.2163087
-0.097513258 0.2143888 1.2053952
-0.081841931 0.21035805 1.2195708
-0.078321025 0.2078518 1.2269621
