# .PCD v0.7 - Point Cloud Data file format
VERSION 0.7
FIELDS x y z
SIZE 4 4 4
TYPE F F F
COUNT 1 1 1
WIDTH 1057
HEIGHT 1
VIEWPOINT 0 0 0 1 0 0 0
POINTS 1057
DATA ascii
-0.025413821 0.10809257 0.86648482
-0.016423162 0.10687066 0.86874139
-0.025719773 0.11133584 0.85964549
-0.016178763 0.10862796 0.86502087
-0.034998596 0.11188635 0.85881746
-0.0257957 0.11292893 0.85628325
-0.017218202 0.11014504 0.86185396
-0.033943523 0.1122846 0.85793823
-0.02610869 0.11270262 0.85677254
-0.032223046 0.11332177 0.85568535
-0.028677575 0.11338857 0.85541642
-0.014697013 0.10453548 0.87361151
-0.0086739706 0.10393918 0.87465376
-0.011501532 0.10580853 0.87080735
-0.0087208785 0.10471017 0.87302691
-0.01322158 0.10817429 0.86587238
-0.021035712 0.11137984 0.85938346
-0.017117815 0.10998857 0.86218077
-0.035923291 0.11287761 0.8567571
-0.025172893 0.11297549 0.85616243
-0.018082468 0.11074816 0.86061114
-0.03593161 0.11312187 0.85624146
-0.026595393 0.11298344 0.85619694
-0.019906325 0.11125281 0.85961109
-0.034524161 0.11381909 0.85471797
-0.028192274 0.11373448 0.85466826
-0.0048031579 0.098286949 0.88645279
0.0012831071 0.097492561 0.88791102
-0.0035195253 0.10062618 0.88146549
0.0011524792 0.09868107 0.88540542
-0.0040314118 0.10246719 0.87759542
0.00055584469 0.099922173 0.88280541
-0.010372037 0.10568812 0.87102085
-0.0055124201 0.10340644 0.87566495
-0.012068358 0.10711676 0.86806446
-0.0068345345 0.10469848 0.87298357
-0.012923234 0.10817248 0.86586547
-0.0092069376 0.10619541 0.86990738
-0.02272323 0.11203413 0.85806239
-0.01605255 0.10980618 0.86252773
-0.036587566 0.1137077 0.85502774
-0.024928974 0.1132623 0.85554785
-0.017218024 0.11063439 0.86082035
-0.035761122 0.11325698 0.85594982
-0.026210241 0.11309539 0.85594666
-0.019254358 0.11126821 0.85955501
-0.034484252 0.11289763 0.85666287
-0.027321728 0.11292092 0.85635525
0.0087103723 0.091924474 0.89940411
0.0049650869 0.094313256 0.89449364
0.010915549 0.093395755 0.89621693
0.0054107215 0.096236803 0.89041454
0.010108764 0.09421131 0.89452338
0.0026760804 0.098127969 0.88651872
-0.0012204909 0.1011108 0.88035887
0.0021526096 0.099683128 0.8832528
-0.0034804447 0.1023176 0.87789142
0.00090200821 0.10059884 0.88136375
-0.0063590356 0.10371621 0.87504119
-0.01132264 0.1071006 0.86807168
-0.0077327131 0.10508232 0.87220526
-0.013043212 0.10824342 0.86571991
-0.0092195338 0.10600609 0.87030774
-0.022240398 0.11152732 0.85911548
-0.016600527 0.10936788 0.86347318
-0.025458731 0.11216468 0.85788536
-0.019719515 0.11021435 0.86179781
-0.034214076 0.11176157 0.85905272
-0.027173193 0.11203945 0.85821176
-0.021051532 0.11107882 0.86001992
0.0049603619 0.08956974 0.90451312
0.013147134 0.088866167 0.90570378
0.01527876 0.090567343 0.90203363
0.0079097124 0.094493717 0.89400613
0.013447321 0.092504837 0.89800727
0.006965409 0.095143497 0.89266777
0.011920659 0.093389869 0.89619303
0.0066475701 0.095955223 0.89096475
0.010536623 0.094396226 0.89411741
-0.0014551613 0.10007209 0.88256145
0.0040756967 0.097825348 0.88710749
-0.0023465827 0.10076547 0.88112897
0.0014125586 0.099319816 0.88404685
-0.003463788 0.10222097 0.87809497
0.00053723052 0.10047907 0.88162988
-0.0064446637 0.10352044 0.87545782
-0.01248707 0.10643037 0.86952943
-0.0093205404 0.1044464 0.87360573
-0.015136164 0.10758083 0.86719495
-0.010058307 0.10526169 0.87191021
-0.025458187 0.11106793 0.8602019
-0.018260607 0.10898025 0.86435187
-0.026818361 0.1117942 0.85871696
-0.019891119 0.10995937 0.8623426
-0.035864003 0.11159478 0.85946459
-0.027705863 0.1117707 0.85879856
-0.021610731 0.1108157 0.86059576
-0.028110579 0.11265544 0.85694444
0.014660831 0.085128456 0.91354406
0.023876777 0.084558442 0.91441548
0.019198131 0.088143639 0.90701169
0.02415598 0.086056538 0.91124111
0.017879406 0.089469902 0.90425777
0.021074707 0.087728515 0.90782076
0.01670699 0.090920195 0.90123677
0.020131808 0.088957421 0.90525907
0.013868645 0.092209131 0.89861679
0.0075715706 0.095282733 0.89235181
0.011124523 0.093839467 0.89527214
0.0058099199 0.096697487 0.88942713
0.0095990859 0.094591737 0.89373815
0.0050592935 0.097706378 0.88732326
0.0095217936 0.095445357 0.89193803
-0.0025047082 0.1011007 0.88042665
0.0012985368 0.099306017 0.88408017
-0.0051725563 0.10196132 0.87870508
-0.00044763513 0.09971045 0.88328892
-0.011791696 0.10590027 0.87062401
-0.0083833169 0.10345246 0.87567133
-0.013068626 0.10618068 0.87007779
-0.0093046827 0.1043345 0.8738414
-0.015430937 0.10756513 0.86723876
-0.010495656 0.10500816 0.87246162
-0.022843709 0.11077508 0.86072612
-0.017039096 0.10896225 0.86434585
-0.026522813 0.11192191 0.85843652
-0.018821016 0.11001608 0.86218417
-0.03461992 0.11143823 0.85975027
-0.0278158 0.11179451 0.85875231
-0.027953386 0.11261958 0.85701454
0.031913862 0.078251153 0.92744792
0.026042325 0.080652431 0.92258769
0.033169825 0.080441393 0.92277628
0.029318171 0.084429607 0.9144913
0.033018645 0.082421817 0.91859865
0.026688652 0.085466102 0.91239685
0.030774007 0.083463028 0.91648036
0.025305245 0.08648292 0.91029906
0.017905265 0.09047991 0.90212357
0.022450471 0.088186666 0.90680337
0.016411955 0.091454491 0.90011895
0.021145087 0.089385085 0.90431917
0.015130918 0.092771903 0.89738256
0.019953994 0.090481989 0.90204519
0.013195515 0.093688086 0.89551711
0.0063406797 0.096686833 0.88943052
0.010098929 0.094724253 0.89344025
-0.0021670489 0.1002114 0.88229287
0.0040428257 0.09775731 0.88725239
-0.0034698264 0.10096295 0.88075238
0.001857955 0.099102631 0.88448954
-0.0039275209 0.10195778 0.87866759
2.7154339e-05 0.099701181 0.8832913
-0.0065191528 0.10368814 0.87510616
-0.0086826393 0.10497432 0.87246764
-0.013519989 0.10766404 0.86696088
-0.010266087 0.10583831 0.87069988
-0.022340631 0.11127338 0.85965544
-0.017647328 0.10940307 0.86343658
-0.026941178 0.11167386 0.85897553
-0.018753398 0.11040595 0.86135828
-0.034058176 0.11121275 0.86020631
-0.027832199 0.11142775 0.85952753
-0.020305213 0.11046758 0.86128402
0.035203546 0.075135238 0.93391055
0.042486157 0.074546672 0.93489105
0.037490528 0.078149259 0.92746186
0.042457018 0.076649755 0.93044996
0.037342243 0.079226345 0.92519218
0.041240908 0.07775034 0.92816907
0.035316207 0.080578968 0.92240816
0.03987933 0.078551888 0.92652518
0.027961861 0.084637329 0.91410148
0.032700706 0.082328558 0.91880703
0.027077129 0.085450321 0.91241622
0.03083095 0.083460242 0.91648412
0.025904046 0.086347237 0.91056406
0.030140419 0.084268704 0.91480154
0.023416147 0.088350587 0.90642232
0.016219705 0.090964511 0.90116084
0.020882854 0.089384802 0.90432924
0.013842911 0.091307424 0.90052223
0.0075576282 0.095968992 0.89090282
0.011687498 0.093583204 0.89579308
0.0063381884 0.096937947 0.88890016
0.010091031 0.094637811 0.89362311
0.0042670714 0.097868338 0.88700968
0.0090173157 0.0962433 0.89027071
-0.0026209652 0.10084087 0.88097972
0.001822021 0.099211708 0.88426042
-0.0041590258 0.10178088 0.87904966
-0.00039774773 0.099869348 0.8829515
-0.0076977755 0.10330467 0.87595874
-0.01353451 0.10663506 0.86913484
-0.010002242 0.10507821 0.8722958
-0.01419883 0.10754922 0.86722791
-0.010226917 0.10547686 0.87146187
-0.023417721 0.11068264 0.86094213
-0.01771323 0.10859464 0.86514658
-0.027043639 0.11120181 0.85997635
-0.020323019 0.10967663 0.86295539
-0.035935398 0.1112617 0.86017066
-0.0277122 0.1113438 0.85970056
-0.021664904 0.110277 0.8617357
-0.03385647 0.11220375 0.8581059
-0.030350298 0.1121749 0.85804033
0.043765362 0.068550274 0.94751054
0.04567828 0.070865631 0.94255096
0.051231969 0.06969817 0.94481647
0.047736969 0.073312566 0.93730825
0.050671265 0.071443677 0.94114989
0.046369415 0.074444145 0.93496746
0.050371956 0.072456032 0.93902236
0.038220737 0.078897879 0.92585427
0.043000393 0.076622844 0.93048716
0.037327673 0.079892203 0.92378622
0.041670352 0.077524818 0.92863005
0.03571308 0.080667287 0.92220736
0.039926305 0.078716561 0.92617559
0.033119906 0.082095236 0.91928482
0.027135504 0.0850254 0.9133116
0.031435385 0.082854152 0.91774267
0.024596855 0.085877545 0.91160327
0.017181968 0.08953736 0.90414059
0.021813624 0.087148413 0.90901941
0.016720699 0.090739876 0.90161717
0.020387204 0.088670075 0.90585673
0.014840821 0.091581084 0.89990819
0.01917219 0.089981958 0.90312958
0.011975525 0.093379438 0.89621305
0.0066664256 0.096645877 0.88950515
0.010447727 0.094496123 0.89390957
0.0041180551 0.09734603 0.88811827
0.0093778092 0.094890155 0.89311588
-0.0044733584 0.10029107 0.88220775
0.001318993 0.0984281 0.88593376
-0.005359591 0.10132451 0.88005692
-0.00046336954 0.099422321 0.88389802
-0.0062129954 0.1029482 0.87665808
-0.0015563638 0.10041952 0.88183123
-0.014100902 0.10673758 0.86893874
-0.0089149578 0.10412185 0.87427664
-0.015739778 0.10723586 0.86794537
-0.010584829 0.1049823 0.87251937
-0.025125457 0.11101569 0.86030024
-0.017600982 0.10827655 0.86581439
-0.027219743 0.11158122 0.85918128
-0.020541107 0.10928418 0.86379218
-0.02834213 0.1116596 0.85905629
-0.022204792 0.10999015 0.86236101
-0.035303362 0.11196858 0.8586548
-0.029342288 0.11237234 0.85758686
0.054784764 0.06478928 0.95505697
0.061287291 0.06393341 0.95663005
0.056432482 0.06696558 0.95040065
0.061240375 0.064549804 0.95532978
0.054943778 0.068801299 0.94657695
0.048748426 0.072592646 0.93879241
0.053011272 0.070131339 0.94383734
0.047942247 0.072799131 0.93838525
0.051590789 0.070931479 0.94219851
0.046055291 0.0744569 0.93495178
0.050626297 0.071625151 0.94076818
0.043900333 0.076246716 0.93124914
0.037860822 0.078997009 0.92565787
0.04153081 0.077545628 0.92859107
0.035372719 0.080160663 0.92328978
0.040094323 0.077621758 0.92848206
0.027615687 0.08323741 0.91707093
0.032286976 0.080992147 0.92164475
0.026558224 0.08465828 0.91410786
0.030697931 0.082341984 0.91885096
0.025328245 0.085741982 0.91186321
0.02956246 0.083664708 0.91609812
0.017474227 0.089668341 0.9038533
0.022193152 0.087285139 0.9087168
0.016383041 0.089660607 0.90390903
0.020853095 0.088038594 0.90717381
0.015186177 0.091287762 0.90051532
0.0070650005 0.095156491 0.89263678
0.012223966 0.092919938 0.89717472
0.0059602018 0.095725924 0.89147389
0.0099658919 0.093934193 0.89511383
0.004053629 0.09668003 0.88952732
0.0085687656 0.094687015 0.89357412
-0.0033442241 0.10064463 0.88142025
0.001190485 0.098104909 0.88662112
-0.0042286385 0.10074191 0.88124663
-0.00096365251 0.099268377 0.88424128
-0.0068684435 0.10249418 0.87764072
-0.0019162947 0.10006723 0.88258833
-0.013831295 0.10528661 0.87199378
-0.0098628374 0.10396752 0.87463683
-0.01638563 0.10667469 0.86915404
-0.011280231 0.10501465 0.87247622
-0.024057994 0.11024557 0.86188841
-0.018509861 0.10750861 0.86746919
-0.012401355 0.1054474 0.87160248
-0.026623428 0.1112974 0.85975927
-0.021260204 0.10865374 0.86514968
-0.028585326 0.11164933 0.85908669
-0.022780856 0.1094407 0.86354232
-0.035115048 0.11153705 0.85955942
-0.030370971 0.11202604 0.85835552
0.062457051 0.058910485 0.9671973
0.064691089 0.060769811 0.96318954
0.070260935 0.060198613 0.96419501
0.064832605 0.062783569 0.95893085
0.059558325 0.065616332 0.95313781
0.062882096 0.064087152 0.95624787
0.057323717 0.067470908 0.94930112
0.061102394 0.065632783 0.95304739
0.055769704 0.068477355 0.94723141
0.049016934 0.071322545 0.94146544
0.053965963 0.07014893 0.94376582
0.059440043 0.068886817 0.94623411
0.048311096 0.073355652 0.93719649
0.052396953 0.071957655 0.94000196
0.046287302 0.074344747 0.93518043
0.050435316 0.072782159 0.93833119
0.038045224 0.077216737 0.92941153
0.042166341 0.075612985 0.93265027
0.037260476 0.078333065 0.92708188
0.035233803 0.079879113 0.92388946
0.027875321 0.083507881 0.91649026
0.032682158 0.08156272 0.92042542
0.02702176 0.083435513 0.91667384
0.030925697 0.082044557 0.91947103
0.017475119 0.087359056 0.90873092
0.023961572 0.08570306 0.9119947
0.017451586 0.087668233 0.90807879
0.021044612 0.087037757 0.9092809
0.016988341 0.089787483 0.90361917
0.019375354 0.088156492 0.90697807
0.014811688 0.090951636 0.9012388
0.011613978 0.092641145 0.89778554
0.0056421263 0.095761836 0.89140946
0.0098740533 0.094402581 0.89412785
0.0032175295 0.096873254 0.88914943
0.0087731201 0.0949727 0.89296335
-0.0037135556 0.10016274 0.88245142
0.00054061087 0.098228335 0.88638377
-0.005123104 0.1010163 0.8806994
-0.0015558415 0.099513546 0.88374484
-0.0074654007 0.1024325 0.87779254
-0.015086333 0.10572614 0.87111068
-0.010732155 0.10411316 0.87436056
-0.017125228 0.10673907 0.86904466
-0.012683347 0.10435261 0.87392515
-0.024666917 0.10987473 0.86269367
-0.019614384 0.10761584 0.86728263
-0.027021512 0.11069095 0.8610546
-0.023125971 0.10917796 0.86410975
0.0739116 0.054877676 0.97530222
0.068839215 0.058005862 0.96887791
0.074201055 0.056927428 0.97096229
0.068661243 0.060687818 0.9632194
0.072878055 0.058613356 0.96744895
0.067584716 0.061772 0.9609682
0.071649194 0.059432596 0.96576291
0.065721683 0.063413359 0.95756859
0.070643067 0.060472399 0.9636029
0.063368611 0.0645926 0.95516264
0.057842389 0.068591483 0.94691563
0.062091578 0.066410482 0.95136905
0.056736086 0.069091812 0.94589877
0.060719047 0.067432486 0.94925988
0.054050039 0.069973111 0.94413412
0.05979478 0.068002246 0.94808972
0.045390479 0.073149711 0.93773693
0.04982882 0.071051784 0.94200802
0.042805087 0.073765576 0.93652934
0.03716952 0.077988617 0.92781276
0.040755905 0.075953104 0.93198282
0.036432367 0.078982428 0.92574024
0.039713345 0.076757357 0.93032163
0.027928416 0.082243711 0.91915852
0.033445604 0.080114491 0.92345673
0.038528807 0.077404268 0.92899787
0.02761516 0.082463019 0.9187066
0.031210236 0.080819324 0.92204875
0.026084844 0.083900698 0.91572511
0.029279262 0.081929006 0.91977441
0.022820143 0.085188314 0.91312319
0.027824054 0.083048254 0.91746294
0.017180728 0.089556068 0.90410107
0.020926654 0.087122664 0.90910578
0.016361693 0.089872733 0.90346164
0.019265017 0.087612286 0.90813154
0.014620164 0.091122136 0.90088558
0.0060086232 0.0950059 0.89299297
0.011141786 0.092498675 0.89810359
0.0053968308 0.094583049 0.8939082
0.008863694 0.093338579 0.89641172
0.0023354287 0.096588627 0.88978249
-0.004386133 0.099783793 0.88327605
2.3824861e-05 0.097725362 0.88746482
-0.0061283838 0.10061635 0.88158035
-0.0018688462 0.098167166 0.88659996
-0.014540346 0.10463487 0.87339598
-0.0093574245 0.10229379 0.8781538
-0.015738372 0.10548452 0.87164456
-0.010719796 0.10318263 0.87632561
-0.018437756 0.10650267 0.86959141
-0.01230537 0.10433696 0.87394464
0.084925994 0.048552942 0.98826396
0.076255128 0.051894862 0.98151797
0.085377693 0.050301887 0.98455352
0.07894779 0.054365776 0.97620171
0.084577665 0.052366253 0.98022205
0.076897837 0.056472979 0.97182488
0.082728274 0.054029413 0.97677588
0.075932436 0.057420645 0.96985799
0.080836341 0.055350255 0.97405416
0.07491038 0.058545027 0.96752
0.080036633 0.056115542 0.97246671
0.068054229 0.062076326 0.96030855
0.074041001 0.059760883 0.96498317
0.067318909 0.063397147 0.95754522
0.072458237 0.060800895 0.9628436
0.065610617 0.064352885 0.95558804
0.070423961 0.062487651 0.95935416
0.057591237 0.067891188 0.94840378
0.062497385 0.065524258 0.95322621
0.055437606 0.067812875 0.9486469
0.060201999 0.066256531 0.95176232
0.046566114 0.071421176 0.94134551
0.053891413 0.069163829 0.94584918
0.045981508 0.072401829 0.93929529
0.052600112 0.070300825 0.9434942
0.045536928 0.073505729 0.93697959
0.049752656 0.071666501 0.94071239
0.043563645 0.074989766 0.93391621
0.035587516 0.078649715 0.9264735
0.041558303 0.076487325 0.93082535
0.03421418 0.079394341 0.92495024
0.03944343 0.077486679 0.92879093
0.026083644 0.083132997 0.91734672
0.032771528 0.080694675 0.92225564
0.024700264 0.084311426 0.91490757
0.030060196 0.082069859 0.91944873
0.023761952 0.085003942 0.91347861
0.028720671 0.083161131 0.91719216
0.017077662 0.088612661 0.90609741
0.022586573 0.086002737 0.9114114
0.02768077 0.084151745 0.91513729
0.01498637 0.090206355 0.9028067
0.02051457 0.087614521 0.90808177
0.014108045 0.090739101 0.90171307
0.018682623 0.088855937 0.90552568
0.0063640662 0.093958676 0.89519215
0.011576701 0.091959253 0.89922726
0.0044959439 0.095413551 0.89218646
0.0098152962 0.093127847 0.89682239
0.0024897091 0.096477091 0.8900125
0.0092767943 0.093870282 0.89527375
-0.0046982509 0.099372506 0.88415605
0.0016417112 0.097367272 0.88816291
-0.0064810542 0.10130866 0.88013083
-0.00085003278 0.099097326 0.88459843
0.093780927 0.044894639 0.99567169
0.08946152 0.048186406 0.98887455
0.093981102 0.046781458 0.99167901
0.089315929 0.050099276 0.98483938
0.093167342 0.048324555 0.9884491
0.087417662 0.051281832 0.98241013
0.09078072 0.049472585 0.98611027
0.085107192 0.0526326 0.97964036
0.0784458 0.055983417 0.97280306
0.083101809 0.054667175 0.97541523
0.078330539 0.057497762 0.9696086
0.081515193 0.056136571 0.97236884
0.076934241 0.058713723 0.96709067
0.080707274 0.056905732 0.9707734
0.067551419 0.06218636 0.96009415
0.072326824 0.060504779 0.96347374
0.066241533 0.062279359 0.95994514
0.070066437 0.060454883 0.96366072
0.063429266 0.063816063 0.95680064
0.061038326 0.065869749 0.95254916
0.055311311 0.069176346 0.94577157
0.059662726 0.067143545 0.94990826
0.053677306 0.06926585 0.94564146
0.047622856 0.072973989 0.9380275
0.051085681 0.070969328 0.94213676
0.046520971 0.07402423 0.93584895
0.049776245 0.072356768 0.93925357
0.043669645 0.075145468 0.93358362
0.036764856 0.078698754 0.92632735
0.040163644 0.076541632 0.93076104
0.035255287 0.079307362 0.92509633
0.038607497 0.077714711 0.92833936
0.033411939 0.080769986 0.92207354
0.025949966 0.083763421 0.91601992
0.030007714 0.082119554 0.91934574
0.025077116 0.084695533 0.91408265
0.02770824 0.083153352 0.91724509
0.022428216 0.086366177 0.91064942
0.014481377 0.089996934 0.9032672
0.019767618 0.087404981 0.90855122
0.014186174 0.090603232 0.90199727
0.016792713 0.088805839 0.90569967
0.011218313 0.092408031 0.89829218
0.0059540384 0.095529944 0.89188808
0.0092521422 0.093173221 0.89674699
0.0082296487 0.094487906 0.89400697
0.095314458 0.041563205 1.002653
0.10290445 0.041131012 1.003292
0.09873379 0.044621378 0.99607009
0.10239536 0.042829443 0.9997229
0.098083369 0.045975123 0.99323416
0.10125467 0.044769853 0.99566549
0.095079295 0.047500849 0.99011993
0.088012211 0.050601367 0.98382592
0.092165992 0.048798338 0.9874844
0.087516055 0.051720515 0.98147994
0.090741605 0.049926162 0.98515362
0.085747093 0.052633125 0.97961617
0.083553061 0.054614913 0.97550935
0.076095179 0.057289407 0.97012937
0.079897039 0.05577568 0.97318953
0.067976303 0.060521774 0.96359491
0.073318996 0.058479644 0.9677155
0.067326546 0.061075673 0.96244836
0.071008012 0.059186757 0.96630532
0.06601499 0.062317304 0.95987308
0.062887773 0.063736655 0.95698798
0.056909617 0.067746118 0.94873482
0.060213689 0.065769717 0.9527902
0.055412631 0.068657659 0.94686347
0.059456293 0.066639714 0.95097989
0.053148821 0.069997072 0.944116
0.045953114 0.073522791 0.93692857
0.05063244 0.071224377 0.94161457
0.044668961 0.073617265 0.93677539
0.048171051 0.072275251 0.9394837
0.042229604 0.075329244 0.93324733
0.036775764 0.078953326 0.92578936
0.03986831 0.077502996 0.9287411
0.035111476 0.079775751 0.9241122
0.038575139 0.078543112 0.92659092
0.031868927 0.081671923 0.92022401
0.025843747 0.084408283 0.91466171
0.029327994 0.083089843 0.91732079
0.023815375 0.086062834 0.91124022
0.028313901 0.084730878 0.9138912
0.020138914 0.086844414 0.90972191
0.01491173 0.089863271 0.90353405
0.017627368 0.088013515 0.90734315
0.013288747 0.091040149 0.90110677
0.016649093 0.088812947 0.9056899
0.10462884 0.035652794 1.0148009
0.11291248 0.034743559 1.0164225
0.107095 0.038392991 1.008924
0.11225758 0.03682062 1.012059
0.10741517 0.039945502 1.0056332
0.11152584 0.037839063 1.0099343
0.10561199 0.041343838 1.0027448
0.097726673 0.04534474 0.99457854
0.10247887 0.042849161 0.99967825
0.096890703 0.04642361 0.99232996
0.10078782 0.044195924 0.9968946
0.09558104 0.047338907 0.99044383
0.1000163 0.045110058 0.9949916
0.088078335 0.050635263 0.98375195
0.093082741 0.048280999 0.98854411
0.086572267 0.051573642 0.98182422
0.090546802 0.048871964 0.98738736
0.084063977 0.052014165 0.98098433
0.077488616 0.056056201 0.97268391
0.081285998 0.053945713 0.97700465
0.075392298 0.057011731 0.97074115
0.080475524 0.054642357 0.97556245
0.068300173 0.060184464 0.96429563
0.073406346 0.05786974 0.96900064
0.066402078 0.061886184 0.96076971
0.070653498 0.059592038 0.96546209
0.064739697 0.062931232 0.9586224
0.069145836 0.060152903 0.96433187
0.063370436 0.063451804 0.95757222
0.056709308 0.066924095 0.95047826
0.060926415 0.064372659 0.95571536
0.054762274 0.069077671 0.94599986
0.059125144 0.066630974 0.95101035
0.05375772 0.069582328 0.94497013
0.05916553 0.066901013 0.95043844
0.046103675 0.072977781 0.93807429
0.051719744 0.070382044 0.94335437
0.044377495 0.074251994 0.93544519
0.048106499 0.071403459 0.94132733
0.041731153 0.075618505 0.93265438
0.036565676 0.078282893 0.92721289
0.040574811 0.076399922 0.93104553
0.03391083 0.079295442 0.92517006
0.037342746 0.076961845 0.92997521
0.031804368 0.08003515 0.92368364
0.024224265 0.084465802 0.9145987
0.028817834 0.082289994 0.91902864
0.022792293 0.084947348 0.91363323
0.028358573 0.082583904 0.91842443
0.020197911 0.086000577 0.91150218
0.11560747 0.031628754 1.0229045
0.12214676 0.030651113 1.0247335
0.11760062 0.033341132 1.0192156
0.12144884 0.03193694 1.0220428
0.11494834 0.035411909 1.0149374
0.10789683 0.038926743 1.0077678
0.11205386 0.037018348 1.0116487
0.10692474 0.039875634 1.0057985
0.11021443 0.037638199 1.0104059
0.10602713 0.040824275 1.0038272
0.11013899 0.038629327 1.0083151
0.10306518 0.042697955 0.99997652
0.098177142 0.045550082 0.99412858
0.10176152 0.04364334 0.99802661
0.094058253 0.046479382 0.99231422
0.098899521 0.044396639 0.99653888
0.087340593 0.050369032 0.98434085
0.09110035 0.048437245 0.98828554
0.086533755 0.050604016 0.98387367
0.090607531 0.04908745 0.98692995
0.08404237 0.052342139 0.98029232
0.077606015 0.055239655 0.97440434
0.081730984 0.053678632 0.97755277
0.075750716 0.055931784 0.97300941
0.079558045 0.054127343 0.97668344
0.071397513 0.058117464 0.96854991
0.066834353 0.06115444 0.9622997
0.069650613 0.059584022 0.9655152
0.064780608 0.062051535 0.96047896
0.069609597 0.060392395 0.96380919
0.062925383 0.063080505 0.95837253
0.060581598 0.065110728 0.9541688
0.058911223 0.066833138 0.95059103
0.052305147 0.06976451 0.9446376
0.057423905 0.068123698 0.94791871
0.045990683 0.071861759 0.94043571
0.049769871 0.070309728 0.94357753
0.044143535 0.072849557 0.93841588
0.040755492 0.07489495 0.93421781
0.034847341 0.077787101 0.92832214
0.038987327 0.076165527 0.93159795
0.033274401 0.078882188 0.92606592
0.03770227 0.077340752 0.92916197
0.030651391 0.080344692 0.92307138
0.12388147 0.025635934 1.035264
0.13007167 0.024962571 1.0364629
0.12514184 0.027989194 1.0302479
0.13045038 0.025956985 1.0343488
0.12507699 0.029628132 1.0267885
0.12988125 0.027464496 1.0311852
0.11800881 0.032933705 1.0200615
0.12149719 0.031600069 1.0227525
0.11677688 0.033810038 1.018255
0.1209484 0.031978089 1.021974
0.11515686 0.034864821 1.0160854
0.10850598 0.039189648 1.0071905
0.11318783 0.037245419 1.0111282
0.10771962 0.039897565 1.0057236
0.11247731 0.03790253 1.0097659
0.1054549 0.041335687 1.0027677
0.10901588 0.038919143 1.0077434
0.096826024 0.044400238 0.99660599
0.10180739 0.042243183 1.0009824
0.096364625 0.045008928 0.99533695
0.10017186 0.043464094 0.99846262
0.094640143 0.045884773 0.99354917
0.099537402 0.044049993 0.99724799
0.087612905 0.04949183 0.986184
0.090819091 0.047807984 0.98962492
0.086022034 0.050946333 0.98316914
0.090104051 0.048587762 0.98800355
0.08294861 0.052132964 0.98077357
0.088175908 0.050040215 0.98500532
0.075465597 0.055254102 0.97445107
0.081178792 0.05282075 0.97938466
0.074802428 0.056266382 0.97233683
0.079247519 0.053913727 0.97714573
0.073532335 0.05789718 0.96893817
0.066654921 0.060799047 0.96305686
0.071263194 0.059223175 0.96621919
0.064724289 0.061469674 0.96171004
0.069724597 0.059628367 0.96541888
0.062902778 0.063373849 0.95775378
0.055822227 0.067231581 0.94986087
0.059677735 0.065174669 0.9540664
0.054052476 0.067533314 0.94928741
0.057959009 0.064957753 0.95458663
0.04616474 0.070775539 0.94272369
0.051385239 0.068937317 0.94641805
0.045484014 0.071535796 0.9411425
0.050145987 0.069651306 0.94495469
0.043569848 0.073101401 0.93790466
0.046597522 0.070947945 0.94234395
0.035248891 0.076620921 0.93077087
0.040528193 0.074480057 0.9351024
0.034443893 0.077722341 0.92847353
0.038286962 0.075838283 0.9323144
0.13416024 0.021819605 1.042954
0.13525319 0.023829792 1.0386686
0.12772205 0.027414905 1.0313679
0.13265298 0.025281722 1.0356957
0.1270882 0.027749993 1.0306829
0.13077827 0.02622257 1.0337762
0.12548809 0.029279534 1.02751
0.11879051 0.032998145 1.0198971
0.12295897 0.031100705 1.0237545
0.11837602 0.034452144 1.0168409
0.12188813 0.032730166 1.0203514
0.11670347 0.035682332 1.0143028
0.12108956 0.033080317 1.0196407
0.1074089 0.038838401 1.007972
0.11250727 0.036479518 1.0127705
0.10635142 0.039138302 1.0073767
0.10979602 0.036935292 1.0119056
0.10470571 0.040518194 1.0045214
0.097262345 0.043758348 0.99794614
0.10141021 0.042076051 1.0013499
0.095431544 0.04486239 0.99568015
0.099240869 0.043132871 0.99919581
0.093760751 0.046708114 0.99184185
0.09045817 0.048953526 0.98721832
0.085231096 0.051239148 0.98257917
0.089266568 0.049062677 0.98703068
0.083181426 0.051820651 0.98142487
0.076964617 0.055639118 0.97358382
0.080148704 0.053330183 0.97834587
0.076149724 0.055935621 0.97298694
0.079163462 0.054001093 0.97696429
0.073283292 0.05770427 0.96935457
0.06511575 0.060402527 0.96394998
0.069255538 0.058784589 0.96721792
0.064582199 0.061049238 0.96260315
0.067754686 0.059370235 0.96603507
0.056179002 0.0652868 0.95395583
0.060783565 0.063467145 0.9576332
0.056102611 0.066290468 0.95183861
0.059328116 0.064568311 0.9553597
0.053769741 0.067563638 0.94923359
0.05805704 0.065899327 0.95259422
0.050539687 0.068458766 0.94745946
0.044108514 0.072194964 0.93979985
0.048268434 0.070426211 0.94338566
0.14593957 0.015434956 1.0560148
0.15163861 0.015145675 1.0564201
0.13710345 0.019103341 1.0485852
0.14447054 0.018320505 1.0499729
0.15090035 0.016739549 1.0530802
0.13871285 0.022114698 1.0421665
0.14316936 0.01986688 1.0467535
0.13697535 0.022780348 1.0408231
0.14227819 0.020592581 1.0452528
0.13481246 0.024465661 1.0373415
0.14124836 0.021964313 1.0423926
0.1290991 0.027642291 1.0308378
0.13437518 0.025281876 1.0356332
0.12778646 0.028784264 1.0284731
0.13212436 0.026877142 1.0323449
0.12610711 0.030717883 1.0244496
0.12978429 0.028786581 1.0283961
0.12318403 0.03160271 1.0226861
0.11590423 0.034086861 1.0177017
0.12140492 0.031872146 1.0221812
0.10814663 0.037204683 1.0113961
0.11283314 0.035005018 1.0158732
0.1200657 0.032779381 1.0203131
0.10765523 0.038829565 1.0079817
0.11133412 0.036233336 1.0133327
0.10608769 0.039514787 1.006591
0.11081012 0.037659287 1.0103397
0.10305033 0.041386373 1.0027473
0.10849625 0.038879231 1.0078465
0.09672118 0.04389362 0.99767989
0.10120644 0.042464919 1.0005357
0.096010968 0.043996014 0.99748927
0.1003567 0.042471036 1.0005535
0.093971357 0.045903236 0.99353445
0.086937308 0.050141543 0.98483592
0.091112353 0.048060954 0.98908007
0.084499553 0.051159576 0.98277366
0.09034276 0.048803702 0.98753887
0.082958072 0.051790789 0.98149604
0.080778114 0.053842187 0.97724169
0.073790267 0.056699499 0.97145855
0.07910154 0.054807842 0.97526252
0.071209617 0.058140561 0.96850777
0.078523383 0.055755392 0.97328192
0.065345205 0.0612057 0.96224523
0.069458358 0.059223682 0.9662832
0.063640505 0.062121421 0.96037251
0.06872914 0.060170084 0.96431059
0.056345392 0.065568969 0.95335376
0.062020328 0.062974319 0.95862949
0.054725986 0.066715211 0.95099109
0.059412912 0.064381346 0.95575166
0.052895308 0.068314105 0.94768
0.058288477 0.065924644 0.95253247
0.15335512 0.014164553 1.0584306
0.15442932 0.015110794 1.0563931
0.14868808 0.017494841 1.0515647
0.15409434 0.015878702 1.0547832
0.14599195 0.018725507 1.0490625
0.15087555 0.016739242 1.0530816
0.14467396 0.0196991 1.0470536
0.13769217 0.023773681 1.0386992
0.14205764 0.021664314 1.0429971
0.13721752 0.024637103 1.0368925
0.14085676 0.022737022 1.0407747
0.13559 0.025275562 1.0356027
0.12724036 0.0286396 1.0287985
0.13125995 0.026990488 1.0321367
0.12480156 0.0292724 1.0275497
0.12877131 0.026926152 1.0323625
0.11769131 0.032934643 1.0200709
0.12172091 0.031187154 1.0236166
0.11568721 0.033912539 1.0180776
0.11926533 0.032618254 1.0206825
0.11481628 0.034890033 1.0160445
0.1190019 0.032543227 1.0208504
0.11187012 0.037089199 1.0115057
0.10647733 0.039874174 1.0058178
0.11017139 0.038126215 1.0093765
0.10359873 0.041072384 1.0033908
0.10916725 0.039017633 1.00753
0.097164109 0.044133425 0.99715739
0.1018921 0.042251065 1.0009627
0.096440546 0.04534696 0.9946202
0.10057191 0.042790636 0.99987066
0.093786553 0.047188133 0.99082708
0.097540542 0.044489354 0.99639201
0.090990514 0.048426613 0.98831201
0.085102111 0.051122785 0.98282957
0.08903861 0.049214751 0.9867177
0.083900623 0.051893756 0.9812445
0.075860821 0.055774078 0.97333854
0.08171349 0.053844869 0.9772023
0.074898124 0.056155637 0.97256732
0.078905627 0.054803461 0.97527885
0.072546229 0.057912663 0.96894097
0.066181444 0.061013654 0.96262068
0.070759617 0.059053317 0.96659613
0.064304665 0.061911017 0.96079302
0.068368055 0.059557542 0.96561742
0.15811104 0.014072105 1.0584542
0.15508372 0.014573144 1.0575051
0.1484843 0.017469805 1.0516249
0.15476303 0.014941923 1.0567378
0.14745009 0.018196832 1.0501267
0.15309203 0.015975844 1.0546142
0.14514452 0.019464578 1.0475321
0.13688299 0.023106851 1.0401368
0.14198284 0.021075785 1.044243
0.13515721 0.023266502 1.0398619
0.1394816 0.021352135 1.0437495
0.12713273 0.027214289 1.0318128
0.13179694 0.024940886 1.0364466
0.12650733 0.027436152 1.0313668
0.12977871 0.02494514 1.0365103
0.12473729 0.02926001 1.0275784
0.11733586 0.032847181 1.0202684
0.12178881 0.030317552 1.0254509
0.11674717 0.033288792 1.019357
0.11991776 0.03061486 1.0248904
0.11449097 0.034675442 1.0165095
0.10751282 0.038823962 1.0079987
0.1122676 0.036434263 1.0128747
0.10681782 0.039749697 1.0060683
0.10932422 0.03795898 1.0097604
0.10401286 0.040553004 1.0044729
0.1079845 0.03873384 1.008172
0.10111107 0.042152077 1.0012
0.095810756 0.045422524 0.99448341
0.098957136 0.04378593 0.9978267
0.093927026 0.046606109 0.99205136
0.098029658 0.04503116 0.99523002
0.08604347 0.050115928 0.98492229
0.091456607 0.047289982 0.99069595
0.086075336 0.050626367 0.98384309
0.088717736 0.048222959 0.98882425
0.083461247 0.05170469 0.98165977
0.088315271 0.049381092 0.9863925
0.076312035 0.054889143 0.97519141
0.080647439 0.052940577 0.97915071
0.075844184 0.056016669 0.97282672
0.079084039 0.053856581 0.97727239
0.07181637 0.057467535 0.96990752
0.076998882 0.055589765 0.97368675
0.15639089 0.014108401 1.0584397
0.15934949 0.012506843 1.0617157
0.1545317 0.014917485 1.0567977
0.14762075 0.017524615 1.0515403
0.15417004 0.014624085 1.0574305
0.15994993 0.014911957 1.0566139
0.14614777 0.01858978 1.0493436
0.15282236 0.016049378 1.0544686
0.13785119 0.021648258 1.0431828
0.14382403 0.019058242 1.0484378
0.15026331 0.017140932 1.0522554
0.13638836 0.021963663 1.0425694
0.14114431 0.019834176 1.0468956
0.13300778 0.023044422 1.0404085
0.1315234 0.024983831 1.0363657
0.12506959 0.028138332 1.0299356
0.1293681 0.02587755 1.0345557
0.12311676 0.028444022 1.0293604
0.12859909 0.026690938 1.0328654
0.1208466 0.030344181 1.0254287
0.11580393 0.033804506 1.0183016
0.11938601 0.031822562 1.0223588
0.11431705 0.034227341 1.0174623
0.11865985 0.032238677 1.0215061
0.11187388 0.036218733 1.013344
0.10578489 0.039275631 1.0071069
0.10972544 0.037217781 1.0113115
0.10434564 0.040031865 1.0055617
0.10235357 0.041818783 1.0018592
0.094967879 0.045388997 0.99458456
0.099752083 0.043625861 0.9981361
0.092851736 0.045753896 0.99389029
0.096822821 0.044059336 0.99732614
0.090865858 0.047387689 0.99051094
0.085385039 0.050762042 0.98358136
0.089361019 0.048394337 0.98843902
0.08273688 0.051763952 0.98156071
0.086910181 0.049257755 0.98670375
0.15387809 0.015509419 1.0555711
0.1467434 0.017300323 1.0520457
0.15221365 0.015763752 1.0550939
0.14468943 0.018482529 1.0496228
0.15030649 0.016935095 1.0526886
0.13691005 0.021111794 1.0443498
0.14233544 0.018905751 1.0488138
0.14938791 0.016959958 1.0526693
0.13638255 0.021256752 1.0440627
0.14048314 0.019472055 1.0476844
0.13428906 0.022789143 1.0409015
0.12693007 0.026850007 1.0325897
0.13210733 0.024990216 1.0363312
0.12598446 0.027814999 1.0305855
0.13014406 0.025851235 1.0345833
0.12445232 0.028519616 1.0291525
0.11696342 0.032413036 1.021199
0.12190806 0.030122906 1.0258577
0.11631274 0.033796832 1.0182996
0.12001423 0.031106606 1.0238484
0.1140808 0.035098135 1.0156314
0.11842838 0.032535672 1.020887
0.10698342 0.038151205 1.0094389
0.11155302 0.036224544 1.0133435
0.10626211 0.039269403 1.007103
0.109917 0.037054941 1.0116485
0.10389263 0.039967239 1.0057145
0.10746308 0.03779529 1.0101732
0.10044909 0.042073935 1.001389
0.094348006 0.044808611 0.99583286
0.098151192 0.043068364 0.99937141
0.09337993 0.04573752 0.99390572
0.085126117 0.049479082 0.98630059
0.09020061 0.047149286 0.9910385
0.1559251 0.012391098 1.0620837
0.1464548 0.016499713 1.0537472
0.1505046 0.015030526 1.0567043
0.14376003 0.01788862 1.0509108
0.14930579 0.016388401 1.0538794
0.13794948 0.02059488 1.0454042
0.14327431 0.018502489 1.0496317
0.14917827 0.017551437 1.0514275
0.13588488 0.022391006 1.041685
0.13980182 0.01961527 1.0474066
0.13424426 0.022517085 1.0414778
0.13861801 0.020173237 1.0462706
0.1306224 0.024149284 1.0381609
0.1258311 0.027833268 1.0305525
0.12927377 0.025750935 1.0348264
0.12462857 0.028357342 1.0294889
0.12897956 0.026770711 1.0326833
0.12097387 0.030211896 1.0257035
0.1157504 0.033629313 1.0186737
0.11970606 0.031313896 1.0234215
0.11431567 0.034362569 1.0171766
0.11816444 0.032546893 1.0208728
0.11200477 0.035846755 1.0141252
0.10551216 0.038375467 1.0090182
0.10979836 0.036380157 1.0130781
0.10341803 0.039527744 1.00666
0.099943377 0.041243821 1.0031606
0.15480134 0.011219412 1.0645992
0.14900175 0.016438857 1.0537838
0.14505899 0.017152503 1.0524187
0.14931606 0.016238034 1.0541967
0.13703431 0.020175844 1.0463223
0.142803 0.01804547 1.0506141
0.1488934 0.016731784 1.053169
0.13587725 0.021082312 1.0444494
0.14175074 0.018774793 1.0491114
0.13446619 0.022059217 1.0424368
0.13831368 0.020148575 1.0463338
0.13255988 0.023572683 1.0393089
0.12547633 0.027060524 1.0321975
0.12923495 0.025133923 1.0361311
0.12365883 0.028679088 1.0288444
0.12780234 0.026495293 1.0333074
0.12271027 0.029408082 1.0273387
0.12731855 0.027307257 1.0316099
0.11656267 0.033313319 1.0193119
0.12001508 0.031462997 1.0230956
0.11414284 0.034160793 1.0176091
0.11882525 0.031704828 1.0226277
0.11169255 0.035196409 1.0155101
0.1171004 0.032838464 1.0202954
0.10450001 0.038301095 1.0092119
0.1094458 0.036535889 1.0127618
0.14520481 0.017087728 1.0525502
0.14921664 0.016400903 1.0538564
0.14121395 0.018271625 1.0501937
0.13609248 0.020462096 1.0457517
0.13836563 0.019085482 1.0485774
0.13387953 0.021957844 1.0426722
0.13142119 0.024092153 1.0382528
0.12921871 0.025956944 1.0343934
0.12468203 0.027924076 1.0304021
0.12793207 0.026641592 1.0329937
0.12125037 0.029783323 1.0265988
0.11874419 0.031424046 1.0232236
0.15017363 0.014234483 1.0583977
0.14520662 0.015873209 1.0551156
0.14988695 0.014645174 1.0575405
0.14250764 0.016914561 1.0530134
0.14923549 0.015071511 1.0566635
0.13665721 0.020220503 1.0462415
0.14150886 0.01820983 1.0503135
0.14861463 0.016301855 1.0540872
0.13496201 0.021695256 1.0431877
0.13944913 0.01921919 1.0482558
0.13349964 0.022359177 1.0418382
0.13737869 0.019929394 1.0468304
0.12631097 0.02616927 1.0340499
0.13167644 0.023643449 1.0391914
0.12480905 0.026721373 1.032938
0.12763098 0.025068015 1.0363283
0.12329064 0.028106958 1.030066
0.1269592 0.025920272 1.0345525
0.14943157 0.015956223 1.0547878
0.14458039 0.017118916 1.0525069
0.14940761 0.015462995 1.0558304
0.14252469 0.018054157 1.0506057
0.14825657 0.015940398 1.0548636
0.13499095 0.021246701 1.0441341
0.14028223 0.019302234 1.0480503
0.14727083 0.017142758 1.0523595
0.13364458 0.022163227 1.0422468
0.1373346 0.019925013 1.0468413
0.15124913 0.014077276 1.0586909
0.14428678 0.016337007 1.0541691
0.14803469 0.015407637 1.0559969
0.1410739 0.017499447 1.0518297
0.15027466 0.012989268 1.0610242
