# .PCD v0.7 - Point Cloud Data file format
VERSION 0.7
FIELDS x y z
SIZE 4 4 4
TYPE F F F
COUNT 1 1 1
WIDTH 792
HEIGHT 1
VIEWPOINT 0 0 0 1 0 0 0
POINTS 792
DATA ascii
-0.028321203 0.11855073 0.8543275
-0.025883781 0.11581516 0.85642058
-0.023814 0.11328089 0.85809821
-0.027581953 0.12312108 0.85751164
-0.027418939 0.12226181 0.85733229
-0.026011579 0.11399217 0.85538256
-0.023515794 0.11216047 0.85798335
-0.020275112 0.11021394 0.86156434
-0.016331313 0.10850444 0.86623359
-0.011540214 0.10576394 0.87159246
-0.027744107 0.11980145 0.85571933
-0.027404487 0.11710659 0.85491866
-0.023313995 0.1121534 0.85826021
-0.018774673 0.110172 0.86362797
-0.014513526 0.10764879 0.86835372
-0.028701168 0.11785349 0.85347074
-0.027108975 0.11645394 0.85502088
-0.024110772 0.11364365 0.85785735
-0.019229028 0.11112588 0.86344743
-0.015742823 0.10827674 0.86694312
-0.011450209 0.10607073 0.87186235
-0.0081156772 0.10313597 0.87510705
-0.0036004856 0.10050239 0.88013345
-0.028686915 0.12403242 0.85640764
-0.028002348 0.12221429 0.85649985
-0.026961043 0.11515366 0.85461241
-0.024886258 0.1130791 0.85651404
-0.020849556 0.11083309 0.86105889
-0.016605243 0.10831163 0.86576217
-0.012980081 0.10604914 0.86972785
-0.0094224103 0.10363855 0.87352979
-0.0058727451 0.10227845 0.87781674
-0.0022446476 0.099666871 0.88162166
0.001417404 0.098625101 0.88621485
0.005846112 0.095717274 0.89099169
-0.028325848 0.12014595 0.85507411
-0.027339198 0.11817044 0.85551149
-0.024130668 0.11305022 0.85754955
-0.019352876 0.11095287 0.86319369
-0.015634533 0.10939589 0.86762196
-0.012355503 0.10630476 0.87071568
-0.0089236125 0.10397656 0.87438202
-0.0043007098 0.10102861 0.87940955
-0.00029432215 0.099115171 0.88406944
0.0016462263 0.097840667 0.88616228
-0.029683784 0.1173352 0.85186166
-0.027737193 0.11616834 0.85401374
-0.024627343 0.11315814 0.85691088
-0.020916499 0.11093149 0.86101246
-0.017193981 0.10891839 0.86523104
-0.013227597 0.10626031 0.86948389
-0.0091793612 0.10444292 0.87424701
-0.0043099113 0.10216326 0.87993246
-0.0014710948 0.10073391 0.88319957
0.0019866377 0.098498985 0.88694578
0.0063706301 0.096731178 0.8921988
0.010219946 0.093432918 0.89598662
0.014020333 0.091130927 0.90017694
-0.029843986 0.12341833 0.85451096
-0.028395273 0.12105639 0.8554076
-0.024924837 0.11275901 0.85630935
-0.021451861 0.11089723 0.86025292
-0.01791054 0.10853732 0.86405617
-0.013625741 0.10624631 0.86892444
-0.0094541311 0.10446567 0.87387633
-0.0062968209 0.10277316 0.87746143
-0.0018766075 0.10040364 0.88248056
0.0019753017 0.098338775 0.88685441
0.0059747398 0.096004695 0.89130604
0.0099265873 0.093910009 0.89580458
0.014045309 0.09133628 0.90030855
0.016983625 0.0889332 0.90325421
0.020709017 0.086607039 0.90732902
0.023975901 0.08462888 0.91093147
-0.029120423 0.12033029 0.85405791
-0.028047331 0.11735691 0.85414422
-0.024370335 0.11234795 0.85688525
-0.020655796 0.10957067 0.8607319
-0.016063124 0.10804459 0.86638892
-0.01251743 0.10623819 0.8704595
-0.0076630786 0.10401777 0.87615186
-0.0039794222 0.10253432 0.88056654
-0.00066710263 0.10087135 0.88438094
0.0030081682 0.098152123 0.88820052
0.0074788295 0.096408516 0.89358515
0.011017561 0.093903787 0.89731652
0.014570815 0.091171443 0.90096056
0.018352471 0.088693574 0.90504181
-0.029820219 0.12469706 0.85514766
-0.028235972 0.1173184 0.85386413
-0.02534312 0.11432514 0.85646796
-0.021488048 0.11123592 0.86036247
-0.017940953 0.10923322 0.86434245
-0.01372169 0.10734603 0.86931032
-0.010184698 0.10412519 0.87270117
-0.0064992979 0.10303888 0.87730569
-0.0024369061 0.10118199 0.88207006
0.0015249923 0.099262126 0.88666505
0.0057147257 0.096551344 0.89120299
0.0091379993 0.094150633 0.89482307
0.012681287 0.091891348 0.89867669
0.016906643 0.089639984 0.90348095
0.021518262 0.088026434 0.90912277
0.025235893 0.085480914 0.91308331
0.029233782 0.082620837 0.91728443
-0.02986367 0.12359449 0.85456681
-0.028974101 0.12091221 0.8545357
-0.026420727 0.11580545 0.85567051
-0.0086349994 0.10362387 0.87461632
-0.0063772276 0.10241358 0.87717992
0.0020086244 0.097918198 0.88670218
0.0036212951 0.097053707 0.88853335
0.010071956 0.093595713 0.89585805
0.018457823 0.089100331 0.90538025
0.020715572 0.087890044 0.9079439
0.024650475 0.085780665 0.91241199
0.028396064 0.08283098 0.91622037
0.03177388 0.081288114 0.92018229
0.03629249 0.07839147 0.92508918
0.038989134 0.075851366 0.92763454
0.043033153 0.074446999 0.93258697
-0.029543146 0.12094849 0.85376281
-0.027631298 0.1180024 0.85502666
-0.024860799 0.11479928 0.8573615
-0.021046974 0.11148006 0.8610903
-0.016169205 0.10900654 0.86669564
-0.012659214 0.1068339 0.87054384
-0.0091157258 0.10525388 0.87471837
-0.0035248399 0.10229718 0.88108581
-0.0015574768 0.10050297 0.88297063
0.0023716539 0.098309033 0.88739073
0.0071439594 0.09665443 0.89323634
0.010606859 0.094117805 0.89684731
0.015123896 0.092116013 0.90217441
0.018284511 0.090008512 0.90556818
0.02271826 0.088054873 0.9108026
0.025600748 0.085671224 0.91367966
0.02963629 0.083581388 0.91829675
0.033281337 0.081005163 0.92214197
0.036395144 0.07834354 0.92520916
-0.030407652 0.12480997 0.85438538
-0.028239533 0.11779127 0.85408235
-0.025402099 0.11509369 0.85674888
-0.022335857 0.11316435 0.86009574
-0.017462954 0.11082827 0.86575925
-0.013450652 0.1085783 0.8702684
-0.01090166 0.1060067 0.87259382
-0.0069826469 0.10435912 0.87725776
-0.002634868 0.10193583 0.88215101
0.0010305792 0.10077832 0.88669431
0.0044895411 0.097138546 0.88977903
0.0086987615 0.095036291 0.89463139
0.012097776 0.093240112 0.89850307
0.016221616 0.09142562 0.90337282
0.020495992 0.088871382 0.90810221
0.024560235 0.08608871 0.91243207
0.028567066 0.083773747 0.9169029
0.032173529 0.08071357 0.92046595
0.036564931 0.078757621 0.92564046
0.039737821 0.076344572 0.92890698
0.044237249 0.07441242 0.93424261
0.048367925 0.07225538 0.93896002
-0.030011207 0.12384377 0.85447973
-0.028788894 0.12142725 0.85503608
-0.026507095 0.1163592 0.85581183
-0.019401401 0.11298957 0.86408788
-0.016299821 0.1115504 0.86771524
-0.014959261 0.10971425 0.86870992
-0.0026641563 0.10312331 0.88267094
0.01356151 0.090485439 0.89923519
0.014548503 0.089956343 0.90035594
0.039238375 0.076285459 0.92818558
0.042172313 0.073911294 0.93113875
0.046015531 0.07278724 0.93594468
0.050080299 0.070908979 0.9407022
0.054152027 0.068593219 0.94526279
-0.028870299 0.11884679 0.85370481
-0.026109681 0.11545636 0.85593748
-0.021686152 0.11216361 0.86052543
-0.01805371 0.11122753 0.8651275
-0.014020652 0.10811414 0.86925775
-0.0096062124 0.10530843 0.87406307
-0.0056402534 0.10302577 0.87849247
-0.0019975677 0.10168581 0.882918
0.0020781308 0.099786475 0.88768065
0.0058049113 0.097834811 0.89193416
0.010187641 0.093969002 0.89619493
0.014156893 0.091404334 0.90049565
0.017524831 0.090695798 0.90483779
0.02121843 0.089204133 0.90926242
0.025430392 0.085783869 0.91349632
0.029268783 0.083279848 0.91764414
0.033810578 0.08097218 0.92286128
0.037243437 0.078607187 0.92651153
0.039916798 0.076721646 0.92933363
0.045408688 0.073820554 0.93558985
0.049413912 0.072801068 0.94067013
0.052316871 0.070908703 0.94380778
0.05633666 0.067883469 0.94796121
-0.030495763 0.12631553 0.85497367
-0.030285642 0.12560569 0.85493046
-0.027663037 0.11385381 0.85302413
-0.023065194 0.11314163 0.85907221
-0.019672006 0.11097601 0.86276156
-0.014933109 0.10895122 0.86838597
-0.011216894 0.10629877 0.87229401
-0.0073330104 0.10512696 0.87713379
-0.0038051754 0.10279589 0.88093191
-1.6346574e-05 0.10015484 0.88494623
0.0040248856 0.097547725 0.88932699
0.0072419047 0.095208645 0.89268976
0.011706486 0.093596503 0.89812803
0.01486811 0.090938322 0.9012633
0.019790486 0.08868584 0.90703493
0.023463957 0.087250233 0.91145819
0.027548619 0.085874647 0.91648054
0.031691231 0.083257735 0.92099738
0.034231715 0.081152618 0.92353129
0.03810684 0.079158738 0.92797083
0.042805228 0.076036945 0.93302113
0.047111213 0.072480045 0.93732107
0.052026901 0.070847295 0.94337612
0.05454994 0.069031969 0.94602251
0.058235183 0.067342229 0.950342
0.063072346 0.066478416 0.95665085
0.066441655 0.063454702 0.95990193
-0.032239631 0.12452431 0.85170662
-0.030448228 0.12035448 0.8522256
-0.02650173 0.116146 0.85571873
-0.022237077 0.11237316 0.85985935
-0.017780766 0.11055748 0.86519003
-0.014310315 0.10903774 0.8692916
-0.01008144 0.10702394 0.87421292
-0.0063961744 0.1038814 0.87784666
-0.0021059811 0.10158153 0.88271821
0.0008642599 0.099989355 0.88609082
0.0050224885 0.09776026 0.89081252
0.0087846816 0.095743462 0.8950845
0.011754818 0.094151244 0.89845711
0.020995408 0.08919774 0.90894973
0.024985436 0.087444715 0.91366261
0.027446087 0.086640239 0.91669965
0.033536043 0.082475074 0.92318964
0.034526121 0.081944346 0.92431384
0.038486339 0.0798214 0.92881066
0.059937585 0.068322152 0.95316851
0.062581412 0.067341827 0.95637685
-0.012167424 0.10416952 0.86996889
0.011983037 0.092404954 0.89794964
0.028470732 0.083566502 0.91667134
0.03015314 0.082664609 0.91858172
0.035200387 0.07995896 0.92431283
0.043724611 0.0753894 0.93399209
0.046472579 0.073916331 0.93711239
0.050515443 0.070991829 0.94134539
0.054223794 0.068791732 0.94545621
0.057724304 0.066425398 0.94919974
0.061719418 0.064908236 0.95403105
0.066544481 0.062624723 0.9596529
0.069735967 0.060622331 0.96313918
0.073000066 0.058842078 0.96683115
0.077589504 0.05628863 0.97199857
-0.021862075 0.11041478 0.85945553
-0.018876761 0.11015816 0.86347973
-0.013069883 0.1086956 0.87085247
-0.0098667294 0.10604706 0.8740499
-0.0066426992 0.10351203 0.87732995
-0.0025828332 0.10207625 0.88228953
0.0015987158 0.10081991 0.88750285
0.0056729466 0.097744636 0.89170843
0.0088809729 0.094866738 0.89480436
0.013283245 0.092966467 0.90002006
0.017347567 0.091260418 0.90485829
0.020938933 0.088861965 0.9087128
0.02538912 0.086488351 0.91377163
0.028987758 0.084574714 0.91786522
0.032553535 0.082999721 0.92207301
0.036421355 0.080543116 0.92628402
0.040117547 0.078202747 0.9303115
0.043521419 0.076579824 0.93427187
0.047323532 0.073649973 0.93816817
0.052482013 0.071189344 0.94416946
0.054534372 0.068782195 0.94588292
0.059381176 0.065997034 0.95129824
0.063700326 0.06509839 0.95687139
0.066564426 0.063921668 0.96029288
0.069988012 0.060150478 0.96326631
0.074226767 0.058264017 0.9682616
-0.007400021 0.10214937 0.87563509
-0.0045821369 0.10176282 0.87936544
-0.0015010834 0.10141711 0.88348043
0.003240183 0.099631764 0.88922119
0.0075108707 0.097282022 0.89404196
0.010343403 0.094962925 0.89688045
0.014930293 0.091958232 0.90183115
0.018760465 0.09008237 0.90626395
0.02291353 0.0879732 0.91103524
0.026427098 0.0871635 0.91553169
0.030296929 0.084640682 0.91971415
0.033833325 0.081344992 0.92306888
0.037354667 0.079384118 0.92703289
0.041474249 0.077661648 0.93193996
0.045605063 0.075306013 0.93656385
0.050497774 0.072633274 0.94209594
0.053733397 0.069333985 0.94503117
0.057954103 0.065908201 0.94927466
0.061818469 0.064414725 0.95393562
0.065608837 0.063138917 0.95859653
0.068966776 0.06119379 0.96234095
0.072970405 0.058647733 0.96669829
0.077111125 0.057514664 0.97191298
0.081238396 0.054840766 0.97638166
0.084757924 0.053098299 0.98044622
0.0026521832 0.10010996 0.88863057
0.0050147474 0.0988435 0.89131314
0.0070397407 0.09775795 0.89361262
0.020539925 0.090521 0.90894198
0.025939949 0.087626204 0.91507375
0.026952498 0.087083444 0.91622347
0.0010380149 0.095839143 0.88437283
0.049902648 0.071099222 0.94054538
0.051273093 0.070364587 0.94210148
0.061208718 0.065038458 0.95338333
0.063860759 0.063198507 0.95619714
0.07285735 0.058794022 0.96661037
0.074570395 0.05787573 0.96855551
0.080737337 0.054569855 0.97555804
0.083135583 0.053284235 0.97828126
0.087246865 0.051080316 0.98294961
0.091472819 0.0486058 0.98764938
0.094781771 0.046727344 0.99135739
-0.00012475252 0.098321125 0.88393003
0.0037180781 0.099698298 0.88991624
0.0073842704 0.097328812 0.89388841
0.011427566 0.094870128 0.89834207
0.014837787 0.093023568 0.90220559
0.019533187 0.090427294 0.90749979
0.023438565 0.088456735 0.91199243
0.027181387 0.085821986 0.91594565
0.031271763 0.083818719 0.92067981
0.034648903 0.082347095 0.92467451
0.039096601 0.079928525 0.92970872
0.042686619 0.077213019 0.93341172
0.046315718 0.074192457 0.93702495
0.05017221 0.072484866 0.94157374
0.054721676 0.069978736 0.94670779
0.058218371 0.067694016 0.95048475
0.061558623 0.063986048 0.95337236
0.067533717 0.06287235 0.96114343
0.070076004 0.061269559 0.96391702
0.07351438 0.058819264 0.96753454
0.077385023 0.056534536 0.97183073
0.08147826 0.055331018 0.97694623
0.084773645 0.052468844 0.98017091
0.089093849 0.050363109 0.98517567
0.092825852 0.048255656 0.98936296
0.0057231635 0.092818871 0.88945258
0.0099236965 0.092743672 0.8952499
0.013766795 0.093088351 0.90074903
0.018053636 0.090503521 0.9054814
0.022191301 0.088978678 0.91050696
0.026291817 0.086401105 0.91498393
0.029987797 0.0839068 0.91893858
0.03335651 0.082418263 0.92291343
0.037437938 0.080029912 0.92745328
0.041507438 0.077835634 0.93206823
0.045118146 0.075474702 0.93596727
0.048747171 0.073815338 0.9402231
0.052465629 0.071228504 0.94416517
0.056129914 0.070136324 0.9487378
0.060761552 0.066472158 0.9534393
0.064095676 0.064266004 0.95702738
0.068596497 0.061792523 0.96210939
0.072273009 0.060109556 0.96641999
0.076000057 0.058040261 0.97061843
0.079504475 0.055529207 0.97429901
0.083070293 0.053075727 0.97809213
0.087954156 0.050706569 0.98375529
0.091834649 0.049552739 0.98859888
0.095417947 0.046041142 0.99191672
0.099554218 0.044612508 0.99698579
0.10303989 0.043480508 1.0012915
0.0076159984 0.097695008 0.89438295
0.011544243 0.09451659 0.89833713
0.015401885 0.09268368 0.90282845
0.020261802 0.090851463 0.90871173
0.023454659 0.088761955 0.91215891
0.027073026 0.086900026 0.91630423
0.030279495 0.084321558 0.91953939
0.035822473 0.082074262 0.92617512
0.038132176 0.080401644 0.9285928
0.041550308 0.078486614 0.93243498
0.045284595 0.07627786 0.93657762
0.057450213 0.070818037 0.95089298
0.059754692 0.069582701 0.95350969
0.022068903 0.085960954 0.90891236
0.07610561 0.056993783 0.97027087
0.07955984 0.054937243 0.97409648
0.083625242 0.052962735 0.97880948
0.087822288 0.050712869 0.98357517
0.091051459 0.048735991 0.98712575
0.095034167 0.045945831 0.99133879
0.098418765 0.043831076 0.99504036
0.10204554 0.043088283 0.99972564
0.11463118 0.035931822 1.0138232
0.015935704 0.088255838 0.90147936
0.018816441 0.089865617 0.90623939
0.023084074 0.08773873 0.91116118
0.026307568 0.087174773 0.915371
0.030554689 0.084834583 0.92016375
0.035203032 0.080750294 0.92469007
0.038510241 0.080140993 0.92899472
0.042740658 0.077858433 0.93379134
0.046688236 0.075210005 0.93802249
0.050158255 0.073055208 0.9418236
0.054532971 0.071885496 0.94734591
0.058614988 0.06878759 0.95155168
0.061728738 0.068305925 0.95564795
0.06511578 0.06620384 0.95935875
0.070042744 0.062241934 0.96432984
0.073260456 0.059187122 0.96735567
0.07725317 0.056735076 0.97174221
0.080938295 0.055023126 0.97605109
0.084914029 0.052628357 0.98044109
0.088619411 0.050355114 0.9845131
0.092677101 0.047792181 0.98893756
0.095955066 0.04698528 0.99310833
0.099981502 0.044184893 0.99737722
0.10508943 0.042211279 1.0035383
0.10855019 0.040857002 1.0077045
0.11155352 0.037898093 1.0104778
0.024072751 0.08493337 0.91120964
0.028122544 0.085249417 0.91698229
0.040418923 0.078194782 0.93072623
0.04450956 0.076360032 0.9355402
0.048174098 0.074381888 0.93969482
0.05196929 0.072343126 0.94400215
0.061242353 0.067520157 0.95460165
0.063676029 0.066071898 0.95729721
0.067377225 0.063490972 0.96121818
0.071181349 0.062022127 0.96580714
0.075613283 0.058701828 0.97039366
0.07908193 0.056468807 0.97415584
0.083031088 0.053825095 0.97839153
0.087099813 0.051672965 0.98302519
0.090703808 0.049400367 0.98695672
0.094996363 0.046608377 0.99159908
0.098790154 0.044431534 0.99583954
0.102531 0.042436115 1.0000918
0.10613145 0.041688573 1.0047385
0.11001614 0.039924845 1.0093
0.11379305 0.037816703 1.0135492
0.11789788 0.034827709 1.017838
0.12182294 0.032103609 1.0220022
0.029006839 0.08584962 0.91849363
0.031581625 0.085246608 0.92178428
0.035930768 0.082858413 0.92669576
0.036865458 0.080736428 0.92699194
0.041776292 0.078103922 0.93256813
0.0458358 0.076133355 0.93727475
0.050828323 0.073598929 0.94301075
0.05571498 0.072886124 0.94945979
0.058894895 0.070167936 0.95259202
0.05966568 0.068514027 0.95288152
0.06395635 0.066583529 0.957928
0.070026271 0.063397318 0.96485233
0.073276341 0.06191276 0.96866441
0.10354677 0.041061096 1.0008532
0.1049716 0.040297262 1.0024711
0.033221319 0.0827986 0.92290527
0.03681469 0.081916742 0.92747867
0.040839881 0.079551041 0.93195111
0.044124953 0.076710187 0.93517154
0.047945663 0.07419093 0.93928748
0.05238758 0.071941957 0.94439369
0.056761354 0.0707293 0.94989449
0.059960462 0.069227606 0.95362777
0.063534722 0.067170471 0.95761967
0.068684846 0.063483529 0.9630304
0.072425857 0.060765609 0.96694201
0.076102421 0.059907902 0.97164226
0.080597781 0.055821434 0.97595519
0.084861085 0.053750351 0.98089737
0.088087566 0.051550269 0.98433876
0.091615893 0.049431626 0.98823798
0.095004536 0.047687396 0.99211985
0.099349603 0.044474922 0.99663675
0.10361785 0.041942861 1.0013682
0.10757042 0.04139366 1.0065973
0.11146875 0.03868277 1.0107306
0.11528407 0.036556672 1.0150247
0.11911781 0.034308106 1.0192866
0.12238851 0.032242607 1.0228531
0.12790859 0.029647332 1.0292929
0.035870589 0.08388862 0.92709863
0.037287273 0.083129182 0.9287073
0.058537796 0.071737543 0.95283717
0.042592898 0.075862072 0.93264377
0.048069455 0.074559025 0.93963319
0.053399518 0.071954392 0.94580466
0.063468844 0.06655658 0.95723832
0.06706503 0.064628795 0.96132177
0.074791834 0.059283331 0.9695276
0.077660605 0.057745472 0.97278506
0.080861337 0.055242985 0.97604811
0.085717559 0.052700415 0.98159081
0.089850858 0.049813122 0.98596722
0.092917413 0.047964111 0.98935241
0.097357444 0.045719739 0.99445814
0.10183136 0.044632345 1.0001571
0.10531409 0.041482352 1.0035061
0.10835589 0.039550856 1.0068179
0.1118919 0.03748564 1.010753
0.11628707 0.035026617 1.0156951
0.11999171 0.033470936 1.0201049
0.12356591 0.031850502 1.024303
0.12956738 0.030064847 1.0317935
0.1321023 0.026977077 1.0338554
0.13611789 0.024856415 1.0384303
0.037706271 0.079566486 0.92760718
0.040745899 0.078961663 0.93154234
0.045098789 0.076659642 0.93649983
0.048783205 0.074679822 0.94068122
0.053397723 0.072741762 0.94617397
0.057253316 0.070154481 0.95030618
0.060770407 0.068560295 0.95443732
0.064886317 0.066288248 0.95908004
0.069193475 0.065086558 0.96449345
0.071841501 0.06278795 0.96708536
0.07558199 0.058760822 0.97037804
0.079611294 0.057448879 0.97535372
0.082337931 0.056177728 0.97853976
0.088442497 0.051866736 0.98498118
0.096301734 0.047653697 0.99390525
0.098802395 0.046313182 0.99674475
0.10094579 0.045164157 0.99917859
0.11094841 0.039802093 1.0105366
0.12559515 0.031950507 1.0271679
0.12809581 0.030609991 1.0300074
0.10910315 0.036925629 1.0066162
0.05161541 0.072403349 0.94353932
0.055003829 0.071646877 0.94788724
0.059067532 0.070500955 0.95298904
0.062882945 0.067783684 0.95700413
0.066837855 0.065746248 0.96153396
0.071307719 0.063292436 0.9665823
0.074492335 0.06173991 0.97027141
0.078334995 0.059074819 0.97434902
0.082930028 0.056722514 0.97961903
0.086944193 0.054448202 0.98411924
0.090370812 0.050696362 0.9871062
0.095130891 0.047650106 0.99227768
0.098136626 0.046099227 0.99571931
0.10199277 0.042645909 0.99944353
0.10638681 0.040657729 1.0046064
0.10984415 0.038250521 1.0082706
0.11438324 0.037200253 1.0140777
0.11810493 0.035876751 1.0186207
0.12318239 0.033967752 1.0247699
0.12625855 0.031225059 1.0277466
0.12945049 0.029149409 1.0311989
0.1332846 0.027348112 1.0356723
0.13769558 0.024677716 1.0405366
0.1417717 0.022327676 1.0450873
0.14499579 0.020807993 1.0488467
0.056375965 0.07308194 0.95047003
0.075129218 0.063028991 0.97176427
0.062706076 0.063621722 0.95479369
0.087935738 0.052197803 0.98443371
0.089767851 0.051215671 0.98651409
0.092332833 0.049840692 0.98942655
0.098591991 0.045706771 0.99616635
0.10151282 0.044254165 0.99953628
0.10519077 0.041704886 1.0034398
0.10881931 0.039615892 1.0074922
0.11212137 0.037086844 1.0108835
0.11523695 0.035604395 1.0145097
0.12054738 0.034715835 1.0214642
0.12540907 0.031723585 1.0268024
0.12898678 0.029262651 1.0306084
0.13265106 0.027541153 1.034884
0.1364499 0.025521848 1.0392056
0.13995029 0.022757517 1.0427611
0.14398974 0.020906154 1.047496
0.14841586 0.018114561 1.0523243
0.1525604 0.015003832 1.0566106
0.15448046 0.013460462 1.0585482
0.056712314 0.068489268 0.94876891
0.059998669 0.067993559 0.95309824
0.064636372 0.066948481 0.95904464
0.068593688 0.064854421 0.96355104
0.072446696 0.062722243 0.96789461
0.076102838 0.060176313 0.97176957
0.080012277 0.058074847 0.97620595
0.08361496 0.055625759 0.98005223
0.087760195 0.053901497 0.98499429
0.091440313 0.051954828 0.98918533
0.094978698 0.049056578 0.99273038
0.098484255 0.04593689 0.9961254
0.10215302 0.044438787 1.0005124
0.10605308 0.04127235 1.004433
0.11950323 0.035569742 1.0204175
0.12219983 0.033974633 1.0234088
0.12584536 0.032020401 1.0275482
0.1296335 0.029799659 1.03176
0.13335617 0.026636101 1.0354357
0.13699663 0.024684615 1.0395694
0.14149581 0.022981822 1.045013
0.1448807 0.020655183 1.0486147
0.14864594 0.018439811 1.0527971
0.1526504 0.01629317 1.0573442
0.068542548 0.057570331 0.96004117
0.070386574 0.05658181 0.96213508
0.15142725 0.013359595 1.0542608
0.1532317 0.01242255 1.0563241
0.066617981 0.060673483 0.95883375
0.070421837 0.061525308 0.96451789
0.074769303 0.061521385 0.97055286
0.07799793 0.058689438 0.97369897
0.081156321 0.056921948 0.97725022
0.085545182 0.054570325 0.98223436
0.089363396 0.052524168 0.98657024
0.092914805 0.049840406 0.99023467
0.097359404 0.047998834 0.99553686
0.10136921 0.045287311 0.9998247
0.10617135 0.041780997 1.0048374
0.10985524 0.039567154 1.0089077
0.11301119 0.038321242 1.0127017
0.11855906 0.035058267 1.018865
0.12167756 0.033449065 1.0224355
0.12456225 0.032504272 1.0259949
0.12852868 0.029983409 1.0303127
0.13339807 0.026590938 1.0354725
0.13713998 0.025034634 1.0399338
0.14037511 0.023406489 1.0436574
0.14489543 0.019997835 1.0483249
0.14868483 0.017545387 1.0524288
0.15077966 0.015144604 1.0542043
0.15373808 0.013455536 1.057515
0.072096303 0.063414767 0.96773505
0.074852131 0.061937459 0.9708643
0.075795732 0.055293545 0.96903789
0.079580329 0.053556021 0.97347289
0.083495453 0.054563936 0.97938514
0.093199335 0.049361993 0.99040389
0.095438689 0.048161548 0.99294668
0.10029067 0.045560583 0.99845612
0.10564028 0.042692862 1.0045305
0.10808937 0.040686406 1.006984
0.11111427 0.039758436 1.0107462
0.11708592 0.03655725 1.017527
0.11951067 0.033411887 1.0194091
0.1229339 0.030602712 1.0228362
0.12612994 0.02933307 1.0266747
0.13082957 0.028187912 1.0326599
0.13563015 0.025531998 1.038072
0.13898417 0.02345393 1.0417483
0.14283091 0.021130562 1.0459929
0.14676331 0.017438592 1.0497103
0.14881137 0.015381319 1.0515831
0.15109994 0.013750773 1.0539911
0.075017713 0.057974037 0.96922302
0.078324839 0.058000077 0.97382748
0.082935192 0.055510756 0.97905415
0.087077461 0.054526128 0.98434114
0.090716586 0.051643915 0.98803371
0.094420224 0.049745683 0.9922803
0.097813837 0.047592741 0.99597615
0.10201234 0.045058172 1.0006094
0.10549211 0.042526383 1.0042461
0.10895009 0.039784051 1.0077533
0.11368356 0.038409594 1.013677
0.11684861 0.036522776 1.0171813
0.11989006 0.033919524 1.0201755
0.12582362 0.030738771 1.026913
0.1291467 0.029845949 1.0311058
0.13222095 0.028197935 1.0345966
0.13583645 0.025371237 1.0382825
0.14028658 0.022985658 1.0433357
0.1436242 0.021196479 1.0471256
0.08680848 0.052266896 0.98290104
0.090239495 0.052188721 0.98762846
0.093723387 0.050292943 0.99157107
0.096845105 0.048784778 0.99519378
0.10096122 0.046665795 0.99990892
0.10534649 0.043723606 1.0046092
0.10874504 0.04207138 1.0085484
0.1126164 0.039352305 1.0126402
0.11644058 0.038093824 1.0173564
0.1203779 0.035209216 1.0214617
0.12356788 0.032188907 1.0244653
0.12792008 0.02889479 1.0289536
0.13116324 0.027771492 1.0329267
0.13592055 0.026056224 1.0387228
0.14054218 0.023288377 1.0438336
0.14438766 0.020825587 1.0480106
0.14748763 0.018355947 1.0511491
0.14971095 0.015668865 1.0529679
0.090363204 0.054002367 0.98865628
0.09544915 0.044706944 0.99133015
0.099193484 0.042523343 0.9954986
0.10432671 0.043585084 1.0031278
0.11297074 0.037971847 1.0124806
0.11555313 0.037834376 1.0160016
0.12126384 0.034773085 1.0224861
0.12403058 0.032399341 1.0252073
0.12811667 0.031099519 1.0302675
0.131565 0.028948443 1.0340402
0.13565907 0.026678123 1.0386533
0.13881229 0.024760861 1.0421265
0.1434041 0.021900211 1.0471522
0.14741196 0.018456263 1.0510916
0.15138379 0.016417734 1.0556443
0.15408802 0.015625149 1.0590252
0.094333895 0.04815647 0.9914102
0.097545177 0.046700753 0.99518198
0.10187301 0.045741044 1.0007385
0.10723615 0.043937366 1.007334
0.10909788 0.040982284 1.0085241
0.11420368 0.039057124 1.0147051
0.11783568 0.037228215 1.0188849
0.12140768 0.035124071 1.0228516
0.12473045 0.032805495 1.0263709
0.12865137 0.029987874 1.030485
0.13337204 0.028083593 1.036141
0.13757414 0.026444633 1.0412023
0.14056289 0.024708053 1.0445324
0.14473969 0.02153429 1.048834
0.1476786 0.01956027 1.0519829
0.10549659 0.041517742 1.0037762
0.10803926 0.043015096 1.0080137
0.11123385 0.041482557 1.0117261
0.11524895 0.038383178 1.0158383
0.11955963 0.036574412 1.02097
0.12336063 0.03395446 1.0250111
0.12683992 0.031444278 1.0286574
0.13083792 0.029502993 1.0332923
0.13522382 0.027102519 1.0382493
0.13857162 0.025323849 1.0420582
0.14210762 0.0228095 1.0457813
0.14695381 0.019110799 1.0507643
0.15033671 0.016959893 1.0544463
0.11630097 0.034499101 1.0154654
0.11871739 0.033945322 1.0185593
0.1227612 0.032997392 1.0237269
0.13940983 0.024072671 1.0426314
0.14283451 0.021964854 1.0463917
0.14601609 0.020234518 1.0499927
0.14948115 0.016804935 1.0531851
0.1520707 0.015337013 1.056088
0.10931303 0.040435374 1.0085646
0.11211361 0.040148702 1.0123181
0.11612193 0.03817565 1.0169525
0.12086189 0.035759799 1.0223937
0.12471358 0.033705637 1.0267723
0.12792502 0.031338975 1.0301144
0.13238136 0.029309969 1.0353444
0.13654079 0.027216172 1.0401316
0.13891284 0.024699384 1.0422373
0.14358538 0.022489976 1.0476824
0.14707476 0.020320917 1.0515037
0.15010841 0.017878212 1.0545628
0.15372461 0.015547765 1.058484
0.14981568 0.013610726 1.0521417
0.15008014 0.012741305 1.0520985
0.11709838 0.035510063 1.01705
0.12257551 0.030172747 1.0221355
0.12566981 0.030321699 1.0265026
0.1299337 0.030630115 1.0325689
0.13478465 0.028505454 1.0383017
0.1377186 0.026456896 1.0414085
0.14291792 0.02234409 1.0466865
0.14617625 0.018419998 1.0493585
0.14960435 0.017042093 1.0534682
0.15211551 0.016082471 1.0565021
0.13372988 0.022763554 1.0341264
0.13625515 0.023205709 1.0378417
0.14950567 0.016687535 1.0531638
0.1324212 0.029156065 1.0353271
0.13583365 0.027751291 1.0394024
0.13949959 0.025858819 1.0435994
0.14350776 0.023705702 1.0481486
0.14674227 0.020407973 1.051083
0.13640061 0.025895715 1.0393136
0.14194603 0.022223819 1.0452803
0.14548153 0.020173796 1.0492219
0.14944158 0.018865384 1.0541029
0.15122744 0.017115269 1.0557564
0.13597712 0.027787348 1.0396185
0.1387421 0.026305115 1.0427582
0.14249466 0.024293533 1.0470191
0.1458427 0.023053661 1.0510828
