# .PCD v0.7 - Point Cloud Data file format
VERSION 0.7
FIELDS x y z
SIZE 4 4 4
TYPE F F F
COUNT 1 1 1
WIDTH 269
HEIGHT 1
VIEWPOINT 0 0 0 1 0 0 0
POINTS 269
DATA ascii
-0.23100875 0.2807686 1.0933992
-0.23148178 0.2830615 1.0945675
-0.23078518 0.27148902 1.0903933
-0.22921382 0.27258632 1.0891207
-0.23144802 0.28464243 1.0950065
-0.22881943 0.2849997 1.0924354
-0.2320957 0.29770613 1.0995774
-0.23277897 0.29729 1.1001489
-0.23354651 0.31170967 1.105248
-0.23277035 0.30766264 1.1032456
-0.23580013 0.32341111 1.1110471
-0.22989178 0.27377391 1.090167
-0.23001571 0.28996152 1.0951396
-0.2329957 0.30204469 1.1017933
-0.23521234 0.31864414 1.1090212
-0.23574354 0.32816336 1.1124123
-0.23701136 0.34195089 1.1178318
-0.228672 0.27686954 1.0898511
-0.22864135 0.28908136 1.0934758
-0.23026294 0.30342233 1.0994215
-0.23438498 0.31588042 1.1073509
-0.23088659 0.31384695 1.1031779
-0.23482315 0.3291468 1.1117691
-0.23451793 0.3230395 1.1096298
-0.23464763 0.34074453 1.1150625
-0.23715854 0.35528669 1.1219743
-0.23795418 0.36935911 1.1269979
-0.22891161 0.28026342 1.0911113
-0.22941926 0.27954888 1.0914147
-0.22988594 0.29424882 1.0962909
-0.23066929 0.30658805 1.1007833
-0.23066887 0.30692467 1.1008836
-0.2326225 0.32075569 1.1070149
-0.2347624 0.33285427 1.1128172
-0.23481703 0.33353013 1.1130751
-0.23581232 0.3473008 1.118212
-0.23851664 0.36088046 1.1250327
-0.23726998 0.36039463 1.1236172
-0.23889753 0.37323675 1.12912
-0.23891111 0.38616616 1.1330048
-0.2399691 0.40066025 1.1384219
-0.23023137 0.272055 1.0899984
-0.229087 0.28408265 1.0924335
-0.23062952 0.2952497 1.0973483
-0.23185228 0.31189135 1.1035763
-0.232694 0.31808773 1.106289
-0.23544991 0.33708578 1.1147845
-0.23488736 0.34901202 1.1177818
-0.2341461 0.35557842 1.1189926
-0.2366946 0.36679658 1.1249475
-0.23830619 0.37256747 1.1283171
-0.23839003 0.37781414 1.1299733
-0.23962481 0.39409545 1.1361058
-0.24087878 0.40454736 1.1405126
-0.24030769 0.41251424 1.1423159
-0.24271825 0.42097372 1.1473044
-0.24180704 0.4317387 1.149599
-0.2293399 0.28483936 1.0929177
-0.23013695 0.29770446 1.0975813
-0.2289159 0.29835331 1.0965315
-0.23109476 0.31153607 1.1026981
-0.23345563 0.32473785 1.1090559
-0.23157153 0.32348228 1.1067604
-0.23362105 0.33790144 1.1131654
-0.2347621 0.35026738 1.1180301
-0.23683842 0.36457503 1.1244291
-0.23689194 0.37746853 1.1283437
-0.23765515 0.38858268 1.1324487
-0.24006353 0.39145842 1.1357633
-0.23951311 0.4050034 1.1392577
-0.23951113 0.41766173 1.1430453
-0.24096708 0.41807649 1.144653
-0.24245846 0.43011573 1.1497768
-0.24398966 0.44096178 1.1545839
-0.23057207 0.27430302 1.0910186
-0.22976626 0.28503761 1.0934114
-0.23075601 0.28705671 1.0950242
-0.23106493 0.30193451 1.0997931
-0.2308954 0.3140398 1.1032447
-0.23094252 0.31523314 1.1036499
-0.23235707 0.32802939 1.108922
-0.23386803 0.34142944 1.1144733
-0.2340779 0.34260064 1.1150377
-0.23458835 0.35435504 1.1190768
-0.2375012 0.35985604 1.1236914
-0.2380856 0.36823609 1.1267956
-0.23681615 0.36907262 1.1257528
-0.23854318 0.38209131 1.1314099
-0.23726511 0.37931728 1.1292773
-0.23870701 0.39495498 1.1354281
-0.23989944 0.39814198 1.1375971
-0.23881763 0.40837497 1.1395586
-0.24018687 0.41950727 1.1442863
-0.24362519 0.43642163 1.1528534
-0.2422751 0.43387258 1.1507146
-0.24517936 0.44786283 1.1578619
-0.24237551 0.44547155 1.1542896
-0.24613726 0.45150611 1.1599288
-0.24540408 0.46545362 1.1633574
-0.24570437 0.46012011 1.1620666
-0.24761532 0.47441894 1.1682944
-0.24593829 0.47087669 1.1655253
-0.22982201 0.27748698 1.0912076
-0.2318078 0.29307568 1.0978979
-0.23000781 0.29170948 1.0956548
-0.23149563 0.30389902 1.1008201
-0.22994919 0.30470264 1.0994852
-0.23299766 0.3177118 1.1064857
-0.23384912 0.33448189 1.1123741
-0.23479933 0.34545395 1.116627
-0.23427095 0.35864925 1.1200391
-0.23585996 0.36200911 1.122664
-0.23672402 0.37168479 1.1264409
-0.23838806 0.38622719 1.1324902
-0.23740689 0.39884561 1.1352683
-0.23816106 0.3986384 1.1359745
-0.23999196 0.41193977 1.1418222
-0.24187021 0.42858896 1.1487203
-0.24214958 0.43812868 1.151861
-0.24474096 0.45582616 1.1597996
-0.24337953 0.45243758 1.157398
-0.24543244 0.46515015 1.1632954
-0.22760606 0.27868745 1.0893095
-0.22937319 0.28891355 1.0941713
-0.23167896 0.31501326 1.1043344
-0.23482181 0.33107248 1.1123443
-0.23575482 0.34521744 1.1175296
-0.23742802 0.37277284 1.1274841
-0.23721927 0.38608626 1.1312572
-0.23683874 0.39782539 1.134384
-0.23966858 0.41194135 1.1414931
-0.24110439 0.42565349 1.1470612
-0.24079317 0.43933854 1.1508412
-0.24235095 0.45042467 1.1557473
-0.24514116 0.46364588 1.1625484
-0.2469998 0.47551522 1.1679955
-0.22971153 0.28154618 1.0923104
-0.22997966 0.2954036 1.0967323
-0.23132834 0.3087402 1.1020991
-0.23124367 0.30810758 1.1018234
-0.23294085 0.31892511 1.1067911
-0.23581547 0.32474735 1.111463
-0.23378578 0.32194412 1.1085558
-0.23525007 0.33508849 1.1139829
-0.23400296 0.34628132 1.1160632
-0.23626846 0.34842479 1.1190132
-0.23700914 0.36103389 1.1235428
-0.23793985 0.36887228 1.1268377
-0.23730731 0.3769474 1.1286108
-0.23727876 0.38944417 1.132323
-0.2381347 0.40281668 1.1371987
-0.23816279 0.40690345 1.1384507
-0.23942667 0.41603115 1.1424711
-0.24190399 0.42511663 1.1477152
-0.24180466 0.42934555 1.14888
-0.24051183 0.44418582 1.1520059
-0.24068332 0.44155192 1.151392
-0.24323526 0.45609391 1.1583456
-0.24214098 0.45365477 1.1565006
-0.24433209 0.46027711 1.1607155
-0.24606027 0.4699142 1.1653614
-0.22869536 0.27480984 1.0892583
-0.22766697 0.27322739 1.0877367
-0.23028094 0.2862201 1.0942898
-0.23189108 0.30259076 1.1008313
-0.23009387 0.29971725 1.09814
-0.23206651 0.3129662 1.1041164
-0.23516768 0.32852539 1.1119341
-0.23346622 0.32678506 1.1096795
-0.23557715 0.33878306 1.1154221
-0.23597541 0.35377699 1.120317
-0.23866284 0.36726394 1.1270927
-0.23991539 0.38014549 1.1322255
-0.24012482 0.39375699 1.1365139
-0.24000956 0.40632814 1.1401601
-0.23946713 0.41995481 1.143687
-0.24138302 0.4247888 1.1470863
-0.24090162 0.43403521 1.149364
-0.24217054 0.44751489 1.1546924
-0.24510279 0.46278846 1.1622527
-0.24602292 0.47302908 1.1662558
-0.22743496 0.28654218 1.0914866
-0.22660248 0.30674583 1.0966872
-0.23067574 0.3131302 1.1027484
-0.23294517 0.32426339 1.1083938
-0.23492627 0.33956194 1.1149923
-0.23635721 0.34883192 1.1192255
-0.23680586 0.3673963 1.1252404
-0.23718235 0.37981516 1.1293421
-0.23900978 0.39359471 1.1353292
-0.23745409 0.39360556 1.1337476
-0.23952585 0.40655208 1.1397343
-0.24040666 0.41944861 1.1444927
-0.24069555 0.43349886 1.1489935
-0.24230498 0.4472976 1.1547643
-0.24386506 0.46081513 1.1604007
-0.24249543 0.45583773 1.1575152
-0.24584338 0.47337139 1.1661755
-0.23108715 0.32066679 1.1054239
-0.22847426 0.3201203 1.1025984
-0.22987375 0.33147013 1.1074221
-0.23282328 0.33160383 1.1104672
-0.23581672 0.34596333 1.117816
-0.23372394 0.34434223 1.1151985
-0.23632091 0.35776252 1.1218622
-0.23540694 0.37104365 1.1249071
-0.23667586 0.38353816 1.1299406
-0.23718418 0.38617551 1.1312481
-0.23722818 0.39825213 1.1349086
-0.23807326 0.41090056 1.1395563
-0.23906733 0.41390625 1.1414688
-0.24050026 0.42499751 1.1462494
-0.24083829 0.43775165 1.1504121
-0.24192783 0.43867216 1.1517978
-0.24130774 0.45143452 1.154987
-0.2430864 0.46446961 1.1607015
-0.23051083 0.34081632 1.1108692
-0.23407218 0.34978598 1.117183
-0.2327193 0.34921637 1.1156342
-0.23480098 0.35802728 1.1203928
-0.2359691 0.37580219 1.1269045
-0.23811683 0.38900915 1.1330466
-0.23726121 0.39947715 1.135309
-0.23959836 0.42140958 1.1442564
-0.23880821 0.41691265 1.1421049
-0.24134979 0.44260439 1.1523862
-0.24229649 0.45176366 1.1560928
-0.24094993 0.46219751 1.1578447
-0.24536234 0.47114339 1.1650183
-0.23534375 0.36232319 1.1222321
-0.23332433 0.36598855 1.121272
-0.23545751 0.37698275 1.1267368
-0.23362482 0.37391096 1.1239499
-0.23684937 0.38742903 1.1312823
-0.23937815 0.40508419 1.1391444
-0.23828055 0.41437024 1.1408062
-0.23960754 0.424514 1.145195
-0.24159078 0.43177786 1.1493905
-0.24215746 0.44171444 1.1529425
-0.24290016 0.45155853 1.1566465
-0.24135832 0.44535306 1.1532177
-0.24389571 0.45590475 1.1589619
-0.24409047 0.46017358 1.1604383
-0.24342218 0.46776471 1.1620302
-0.24466491 0.47145355 1.1644007
-0.23715019 0.3922857 1.1330428
-0.23682055 0.40622282 1.1368796
-0.23745981 0.41926745 1.1414362
-0.23917097 0.41928333 1.1431843
-0.24121627 0.4317854 1.149011
-0.24080387 0.44515914 1.1525948
-0.24119565 0.45517591 1.1559929
-0.24318424 0.45855287 1.1590298
-0.2453936 0.47144035 1.1651391
-0.240438 0.39977133 1.1386335
-0.23947014 0.40963873 1.1406016
-0.2380887 0.42284334 1.1431475
-0.24235076 0.43616194 1.1514771
-0.24006699 0.43670169 1.149312
-0.2426258 0.44894165 1.1555834
-0.24237534 0.46220911 1.1593003
-0.2445651 0.46622783 1.1627345
-0.24584574 0.47572121 1.1668813
-0.24040517 0.44705194 1.1527553
-0.24212568 0.45463416 1.1567781
-0.24437824 0.46553102 1.1623354
-0.24433391 0.47417849 1.1648792
-0.24291107 0.46542409 1.1608087
-0.24586429 0.47483987 1.1666365
