# .PCD v0.7 - Point Cloud Data file format
VERSION 0.7
FIELDS x y z
SIZE 4 4 4
TYPE F F F
COUNT 1 1 1
WIDTH 792
HEIGHT 1
VIEWPOINT 0 0 0 1 0 0 0
POINTS 792
DATA ascii
-0.063085571 0.10847005 0.8757875
-0.058881477 0.10848091 0.87219518
-0.051340345 0.10958005 0.86628568
-0.057127178 0.11535733 0.87409729
-0.049835619 0.11698144 0.86866134
-0.076505847 0.10083732 0.88349426
-0.071441971 0.10205746 0.87976474
-0.064804256 0.10409027 0.8750906
-0.059645049 0.1062627 0.87175059
-0.052666023 0.1084767 0.86687404
-0.075362422 0.10601169 0.8850767
-0.068330519 0.10582919 0.87896883
-0.062044006 0.10523677 0.8732959
-0.056181677 0.10769872 0.8694976
-0.050195139 0.10951065 0.86527139
-0.09247411 0.097953781 0.89573222
-0.088096738 0.09887851 0.89244384
-0.082095131 0.099713214 0.887721
-0.075503953 0.10207115 0.88324767
-0.06923534 0.10322426 0.87845391
-0.062969737 0.10545929 0.8741982
-0.056885749 0.10638337 0.86944914
-0.051211007 0.10812423 0.86545449
-0.086399354 0.10607285 0.89455205
-0.080165379 0.10668879 0.88952208
-0.10492533 0.092165574 0.90352261
-0.1012697 0.092451796 0.90053582
-0.093743429 0.094918162 0.89531595
-0.088243879 0.096563272 0.89142382
-0.082169145 0.098311096 0.88709044
-0.075643569 0.10002239 0.88235301
-0.068846814 0.1028591 0.87794065
-0.062002301 0.10451449 0.87290263
-0.05711247 0.10710482 0.87000018
-0.049480997 0.1091663 0.86448985
-0.10426487 0.096575327 0.90513998
-0.098610893 0.097012438 0.90051776
-0.092279561 0.095781967 0.89449066
-0.085711315 0.098491624 0.89021099
-0.079710454 0.10096602 0.88630038
-0.072998554 0.10190987 0.88102371
-0.066821508 0.10351932 0.87653422
-0.059638306 0.10550168 0.87136829
-0.053684477 0.10776652 0.86739415
-0.049990073 0.10878409 0.86473632
-0.1229376 0.086930305 0.9163456
-0.11845421 0.08831609 0.91319472
-0.11127169 0.089400657 0.90758514
-0.10449881 0.091459818 0.90280819
-0.098264322 0.09356083 0.89851296
-0.092908978 0.094869837 0.89457786
-0.086404353 0.097433105 0.89028013
-0.079388417 0.10015925 0.88562542
-0.073441058 0.10225674 0.88157403
-0.066895664 0.1040934 0.87688178
-0.060434513 0.10687714 0.87273037
-0.054260164 0.10775489 0.86788106
-0.047721885 0.109712 0.86325455
-0.11629099 0.095045112 0.91467404
-0.10925856 0.095805481 0.90903229
-0.13066526 0.082495585 0.92076373
-0.12503065 0.084412508 0.91689062
-0.11766048 0.086441346 0.9115876
-0.1112328 0.088640772 0.90717578
-0.10556573 0.091034651 0.90351081
-0.10044341 0.092777342 0.89998984
-0.093272105 0.095217064 0.89506048
-0.087022871 0.097343132 0.89076489
-0.080662414 0.099320315 0.88630038
-0.07423494 0.10153032 0.88189387
-0.067799777 0.10336021 0.87729269
-0.060341671 0.10504198 0.87174267
-0.054600932 0.10667281 0.86763716
-0.04839766 0.10854661 0.86325598
-0.13388121 0.086629242 0.92556173
-0.12804 0.086186364 0.92034388
-0.12183317 0.085284196 0.91458577
-0.11525692 0.086735263 0.90967631
-0.10922268 0.089734219 0.90599674
-0.1031582 0.091886804 0.90187234
-0.096882835 0.094421014 0.89775646
-0.090921581 0.096936107 0.8938998
-0.084655628 0.099167921 0.88964224
-0.078058422 0.10066171 0.884736
-0.0721751 0.1033282 0.88102102
-0.064959437 0.10516156 0.87575352
-0.05894696 0.10638368 0.8712132
-0.052235782 0.10821275 0.86637521
-0.13232337 0.091080047 0.92643142
-0.14692028 0.079866745 0.93337303
-0.14054056 0.080585651 0.92826927
-0.13440026 0.081662603 0.92354763
-0.12793328 0.083753102 0.91904825
-0.12138343 0.086356536 0.91473168
-0.11534232 0.08709494 0.90992743
-0.10919784 0.090064555 0.90613884
-0.10280067 0.092561439 0.90190017
-0.096869044 0.094787955 0.89792627
-0.090155028 0.096612543 0.89308375
-0.083938189 0.098158412 0.88852865
-0.076653793 0.10026 0.88333517
-0.071059287 0.10219331 0.87950438
-0.065605052 0.10492618 0.87618953
-0.059188183 0.1065566 0.8715052
-0.052839015 0.10800788 0.86679012
-0.14497234 0.085824855 0.93465489
-0.13826773 0.085851543 0.92893064
-0.13439403 0.083468474 0.92443621
-0.13267273 0.08178401 0.92212939
-0.12900978 0.083030142 0.91961157
-0.11540467 0.087658755 0.91025972
-0.11278829 0.088548854 0.90846133
-0.1023228 0.092109315 0.90126759
-0.088717669 0.096737899 0.89191574
-0.085054755 0.097984061 0.88939792
-0.078670822 0.10015595 0.88500971
-0.072205521 0.10141705 0.88010103
-0.06651254 0.10361651 0.87631786
-0.058836672 0.10575329 0.87080675
-0.052897785 0.10666862 0.86617762
-0.046887856 0.10947713 0.86242449
-0.16246693 0.077655703 0.94558293
-0.1581627 0.077200331 0.94167417
-0.15233299 0.077463694 0.93681562
-0.14463234 0.078800477 0.93088734
-0.13943344 0.080744535 0.92740053
-0.13327265 0.082546011 0.92301995
-0.12714979 0.084940866 0.91896558
-0.12103482 0.087099738 0.91480112
-0.11385144 0.08875861 0.90947497
-0.10752058 0.090826154 0.9050805
-0.10176975 0.093704149 0.90158367
-0.095452428 0.095170073 0.89690304
-0.089161232 0.097739764 0.89279115
-0.082733244 0.099500149 0.8881616
-0.076579653 0.10202661 0.88414603
-0.06958358 0.10354551 0.8789109
-0.063470028 0.10570389 0.87474734
-0.057402696 0.10714939 0.87027061
-0.050810523 0.10838853 0.8652426
-0.16157684 0.081296302 0.94662303
-0.17673279 0.07057929 0.95428872
-0.17110981 0.071313091 0.94983983
-0.16415697 0.073369615 0.94490778
-0.15835306 0.075645186 0.94106728
-0.15290231 0.077415146 0.93727875
-0.14566448 0.078642681 0.9316926
-0.13927457 0.08126539 0.92752236
-0.1330447 0.083303861 0.92319995
-0.1265931 0.086292326 0.9191581
-0.12027305 0.086663701 0.91393346
-0.1143117 0.0888559 0.90991694
-0.10766326 0.09112861 0.90535235
-0.10105893 0.093769267 0.90100753
-0.09519279 0.095518336 0.89685321
-0.089175463 0.096974462 0.89242446
-0.082956329 0.098928362 0.88806951
-0.076427996 0.10002372 0.88302493
-0.070038185 0.10260177 0.87883276
-0.06400308 0.10393761 0.87432921
-0.058041215 0.10645884 0.87047529
-0.050737809 0.10899244 0.86547929
-0.17524241 0.076086596 0.95573908
-0.16821042 0.076667674 0.95000887
-0.16376433 0.07436011 0.94506198
-0.15475607 0.077893168 0.93910176
-0.15027738 0.079645574 0.93613636
-0.14533584 0.080183193 0.93217373
-0.1253885 0.086969465 0.9184624
-0.12425388 0.083779112 0.91591227
-0.12265256 0.084323868 0.91481161
-0.08148174 0.097884417 0.88629091
-0.075572528 0.099085629 0.88182855
-0.070194341 0.10185428 0.87859643
-0.065006323 0.10393567 0.8751868
-0.057316639 0.10640576 0.86982894
-0.18732192 0.067812435 0.96198094
-0.18140195 0.067914173 0.95696527
-0.1751606 0.069136538 0.9522292
-0.16866054 0.07234215 0.94825327
-0.16253501 0.073488615 0.94357872
-0.15681587 0.075017825 0.93944132
-0.1501351 0.07713221 0.9347707
-0.14367379 0.079930529 0.93062627
-0.13752331 0.082311876 0.92654169
-0.13112724 0.084529042 0.92216551
-0.12507682 0.085098475 0.91726965
-0.11841567 0.086928755 0.91247517
-0.1126272 0.089980915 0.90903223
-0.10667659 0.092489898 0.90518171
-0.099908799 0.093641236 0.89995992
-0.094430536 0.095072381 0.89598018
-0.087680474 0.097502738 0.89140666
-0.080775335 0.099314488 0.88639414
-0.075415485 0.10067627 0.88248146
-0.067884937 0.10329871 0.87733501
-0.062034197 0.10641512 0.87387061
-0.056728415 0.10787925 0.87005484
-0.049001731 0.10962962 0.86430901
-0.18541332 0.07494086 0.96387571
-0.18051283 0.075956792 0.96018499
-0.19865045 0.059824582 0.967722
-0.19442889 0.063039765 0.96570075
-0.18728 0.065106936 0.9606061
-0.18143758 0.067629591 0.95685494
-0.1748925 0.069195196 0.95202875
-0.1690174 0.072101526 0.94843954
-0.16237432 0.073913589 0.94365156
-0.15563324 0.075594731 0.93871486
-0.14951015 0.077246703 0.93429255
-0.14244595 0.079016954 0.9291234
-0.13692495 0.081691824 0.92572266
-0.13013656 0.083024949 0.92057335
-0.1245232 0.085348353 0.91691953
-0.11849971 0.087925658 0.91304052
-0.11218643 0.090884343 0.90910208
-0.10574555 0.092686549 0.90448231
-0.099115655 0.09417285 0.8995443
-0.092349991 0.096551046 0.89493155
-0.087098241 0.0977709 0.8910411
-0.08145491 0.098470837 0.88655818
-0.074932598 0.10170215 0.88257599
-0.067769364 0.1036405 0.87740529
-0.061372027 0.10609466 0.87314546
-0.055549558 0.10981562 0.87000442
-0.049882554 0.11053438 0.86551046
-0.20117286 0.067046136 0.97345477
-0.19688615 0.06530574 0.968925
-0.1917098 0.065008581 0.9643482
-0.18473773 0.065906428 0.95882618
-0.1783281 0.06866578 0.95470679
-0.17196496 0.07115867 0.95049524
-0.16686967 0.073165983 0.94712842
-0.15903765 0.074649818 0.94116056
-0.15207723 0.077017814 0.93637604
-0.14725846 0.078657195 0.93306381
-0.14051223 0.080952361 0.92842656
-0.13440847 0.083028913 0.92423093
-0.12958971 0.084668294 0.92091858
-0.114598 0.089768603 0.91061372
-0.10846762 0.092241153 0.9065913
-0.10493298 0.0939596 0.9044171
-0.094252139 0.096690461 0.89662832
-0.092645884 0.097236916 0.89552426
-0.086220883 0.099422768 0.8911078
-0.051418722 0.11126278 0.86718559
-0.04824277 0.11279079 0.86522406
-0.19704969 0.059310529 0.96609765
-0.15707099 0.074072324 0.93919176
-0.13032165 0.083172694 0.92080486
-0.12759213 0.084101319 0.91892862
-0.11940356 0.086887144 0.91329998
-0.10557398 0.091592118 0.90379381
-0.10111573 0.093108833 0.90072936
-0.09412878 0.094729744 0.89555246
-0.08872509 0.096365906 0.89173794
-0.081157409 0.09843044 0.88628364
-0.07535845 0.10103108 0.88260835
-0.068910107 0.10354314 0.87833339
-0.063084245 0.10522777 0.87418163
-0.055837736 0.10763749 0.86917293
-0.049706463 0.1096482 0.86492121
-0.20080531 0.058915727 0.96911627
-0.19730838 0.061454661 0.96738029
-0.19355693 0.064440265 0.96564776
-0.18664163 0.065847434 0.96042633
-0.17971338 0.06738285 0.95525736
-0.17374901 0.070154049 0.95152479
-0.16768938 0.073201455 0.94784749
-0.16127056 0.074504517 0.94299936
-0.15461195 0.075603038 0.93784499
-0.14922526 0.077914 0.9343791
-0.14281891 0.080564424 0.93020856
-0.13686436 0.082119502 0.92588258
-0.12969837 0.084570028 0.92096299
-0.12354617 0.086674318 0.9167397
-0.11725265 0.089142308 0.91257542
-0.11087993 0.0909293 0.90800643
-0.10350972 0.093063042 0.90275538
-0.097898379 0.095170915 0.89899659
-0.092264511 0.096210882 0.89469004
-0.085681476 0.098775655 0.89032602
-0.079196699 0.09964551 0.88520706
-0.071165949 0.1021902 0.87959415
-0.066227421 0.10530128 0.87690783
-0.060485132 0.10759598 0.87312955
-0.053537905 0.10802273 0.86739558
-0.046880845 0.11067274 0.86301029
-0.19655792 0.060102884 0.96606898
-0.19207309 0.062743746 0.96353811
-0.18572402 0.066180378 0.95980579
-0.17859435 0.069362834 0.95527959
-0.17340742 0.071090281 0.95169586
-0.16627949 0.072688818 0.94638723
-0.15997416 0.074307784 0.94179273
-0.15364048 0.076636761 0.93752527
-0.14712526 0.078972392 0.93310571
-0.14208874 0.081758633 0.93017471
-0.13536189 0.083596982 0.92532802
-0.12768021 0.084797621 0.9193486
-0.12127793 0.086894281 0.91490746
-0.11645812 0.08903978 0.91184479
-0.11002356 0.091092393 0.90735424
-0.10395324 0.093132436 0.90316916
-0.097405858 0.093792178 0.89789277
-0.091483675 0.094666228 0.89325738
-0.085528396 0.097269297 0.88944948
-0.078516789 0.10039278 0.88499516
-0.073237114 0.10204746 0.88129586
-0.066086158 0.10407546 0.87618011
-0.059540521 0.10738141 0.87221497
-0.054161709 0.10877122 0.86829984
-0.047650181 0.11111906 0.86388952
-0.17461015 0.070815511 0.95258909
-0.1707772 0.072119497 0.94995439
-0.16749187 0.073237225 0.94769615
-0.14558943 0.080688648 0.93264085
-0.13682845 0.083669208 0.92661875
-0.13518575 0.084228061 0.92548966
-0.1988602 0.057757046 0.96687824
-0.12155883 0.085523203 0.91446918
-0.11933545 0.086279593 0.91294092
-0.10321607 0.091763556 0.90186083
-0.097787485 0.093181163 0.89791685
-0.084317476 0.098193035 0.88887036
-0.08153829 0.099138558 0.88695997
-0.071533136 0.10254239 0.88008267
-0.067642257 0.1038661 0.87740815
-0.060972184 0.10613534 0.87282324
-0.053553104 0.10844474 0.86761743
-0.047903024 0.11025956 0.8636806
-0.19562569 0.06063281 0.96553349
-0.19014105 0.065914892 0.96345437
-0.1835739 0.0677405 0.95873797
-0.17763317 0.069481075 0.95451552
-0.17048796 0.071872614 0.9495846
-0.16487348 0.073730268 0.94569945
-0.15897438 0.075864747 0.94170767
-0.15272985 0.077364236 0.93710595
-0.1460844 0.079812698 0.93263096
-0.1397458 0.082293697 0.92843455
-0.13342023 0.084423281 0.92407548
-0.12678054 0.085887641 0.91911817
-0.1202517 0.087034941 0.91409886
-0.11459709 0.089323014 0.91039234
-0.10828038 0.091419123 0.90602428
-0.10242864 0.093001083 0.9017995
-0.095486589 0.093442798 0.89607733
-0.089781091 0.097506441 0.89320612
-0.083556816 0.099358857 0.88879645
-0.077011749 0.10097123 0.88399351
-0.070169844 0.10308371 0.87918395
-0.064117655 0.10613222 0.87551361
-0.057901468 0.10714988 0.87069762
-0.051454522 0.10955882 0.86637288
-0.044895723 0.11167771 0.86180884
-0.19984066 0.057031095 0.96735793
-0.19608384 0.060506135 0.96586299
-0.19067022 0.06474188 0.96332669
-0.18380298 0.066795111 0.95846617
-0.17902817 0.069131821 0.9555366
-0.17128216 0.071376845 0.95001888
-0.16533843 0.072891183 0.94568211
-0.15877447 0.075424477 0.94131863
-0.15209307 0.077498078 0.93662739
-0.14610973 0.079529166 0.93251222
-0.13971713 0.081275433 0.92790598
-0.13337253 0.08371146 0.92368221
-0.12711066 0.085250564 0.91908544
-0.12111868 0.088152878 0.91539407
-0.11205439 0.090045653 0.9085741
-0.1079673 0.091038242 0.90556777
-0.10267672 0.092804164 0.9019143
-0.095326975 0.095571853 0.89699459
-0.089574672 0.097462013 0.8930074
-0.082357228 0.099270642 0.88772625
-0.076150432 0.10083969 0.88319123
-0.070766777 0.10295103 0.87962908
-0.063884184 0.10620294 0.87534881
-0.057454392 0.10680592 0.87014484
-0.05190102 0.10949192 0.86672193
-0.044366695 0.11276066 0.86189216
-0.19314724 0.065099157 0.9656232
-0.18729654 0.066033468 0.9610787
-0.18027566 0.068645015 0.95636314
-0.17516571 0.071185663 0.95324773
-0.16941345 0.072760686 0.94910473
-0.16276529 0.075089343 0.94456804
-0.1557959 0.076585487 0.93934441
-0.14631464 0.080522336 0.93317914
-0.14286044 0.081270739 0.93059367
-0.13737096 0.08305712 0.92677999
-0.13145187 0.084867559 0.92261088
-0.11944743 0.090104617 0.91492993
-0.1157087 0.091376558 0.91236001
-0.19632792 0.06041339 0.96602583
-0.10865964 0.090238959 0.90576458
-0.10248966 0.092127621 0.90141946
-0.096459843 0.094389439 0.89737874
-0.089650638 0.096705973 0.89269829
-0.083732568 0.098466843 0.88850534
-0.077149898 0.10005543 0.88365847
-0.07139194 0.10171324 0.87955153
-0.066575073 0.10455652 0.8768366
-0.045024462 0.1114674 0.86181498
-0.19849914 0.058589332 0.96698111
-0.19496195 0.062933303 0.96610409
-0.18941782 0.064996824 0.96238106
-0.18210655 0.068610698 0.95791298
-0.17602706 0.070626736 0.95370811
-0.16955996 0.071262643 0.94848859
-0.16340949 0.074498028 0.9448266
-0.15796405 0.076354444 0.94108546
-0.15148541 0.078030042 0.93637061
-0.1443117 0.08015848 0.93128502
-0.13894951 0.083170235 0.92818695
-0.13242288 0.084490359 0.92325515
-0.12553877 0.087985434 0.91909379
-0.12024775 0.089504302 0.91531777
-0.11433139 0.090235278 0.91061652
-0.10697529 0.0913921 0.90489388
-0.10022053 0.093377605 0.90009618
-0.09371186 0.095846146 0.89574814
-0.087791681 0.097606026 0.89155281
-0.081269808 0.099533804 0.88692588
-0.074596107 0.10141881 0.88214773
-0.06848605 0.104429 0.87840879
-0.063593611 0.1054786 0.87474155
-0.056433521 0.10868689 0.87020218
-0.050950341 0.11105053 0.86667973
-0.044171594 0.111995 0.86134619
-0.19727024 0.060193576 0.96672344
-0.19606297 0.063138925 0.96714807
-0.17454824 0.069979213 0.95212215
-0.16941974 0.072098508 0.94878232
-0.16297153 0.074272119 0.94433999
-0.15703493 0.076290406 0.94025862
-0.14325181 0.081142649 0.93086517
-0.13782157 0.082828388 0.92705256
-0.13177629 0.08429303 0.92260414
-0.12552042 0.086985603 0.91858321
-0.11855831 0.088421077 0.9133358
-0.11307469 0.089918256 0.90938413
-0.10606973 0.091771655 0.90430689
-0.1002939 0.093776099 0.90035629
-0.093268417 0.095813304 0.89535242
-0.087138407 0.097423136 0.89090335
-0.081683524 0.099146269 0.88708812
-0.074903652 0.10145338 0.88242805
-0.067962743 0.10497237 0.87822998
-0.062136874 0.10727646 0.87438482
-0.055742756 0.10936561 0.86994696
-0.050222725 0.11047696 0.8657732
-0.043636337 0.11210039 0.86094034
-0.1924953 0.065389514 0.96520901
-0.18719009 0.06795004 0.96193624
-0.18112826 0.069968946 0.957748
-0.17472023 0.070478871 0.95251673
-0.16675301 0.0731894 0.9470402
-0.16073245 0.075448819 0.94300622
-0.15429723 0.077800408 0.93866318
-0.15106744 0.080850184 0.93740863
-0.14430402 0.082125723 0.93225217
-0.1377295 0.083063453 0.92709011
-0.13051912 0.08587952 0.92231345
-0.12297285 0.088543907 0.91717434
-0.12010787 0.089805365 0.91534692
-0.091720358 0.095149659 0.89369917
-0.089408681 0.09593612 0.89211017
-0.19802102 0.062886007 0.9686985
-0.19263285 0.065759927 0.96551001
-0.18594125 0.067828313 0.96080726
-0.17980373 0.068835631 0.95605367
-0.17299485 0.070677243 0.95113832
-0.1674594 0.072713211 0.94740903
-0.16136023 0.075923003 0.94377828
-0.15466827 0.078391477 0.93927324
-0.14884378 0.080232851 0.93520021
-0.14153573 0.081814878 0.92972934
-0.13568296 0.083102815 0.92535818
-0.12958315 0.086279452 0.92171049
-0.12356612 0.086681485 0.91676027
-0.1182825 0.088712722 0.91324413
-0.11188281 0.090408444 0.90860683
-0.10551975 0.092339717 0.90411741
-0.098917097 0.09464325 0.89960724
-0.092544653 0.09594474 0.8947981
-0.086337194 0.097824112 0.89041615
-0.079992115 0.10153922 0.88682508
-0.073664486 0.10307632 0.8821708
-0.067247272 0.10517643 0.87771869
-0.060856082 0.10715687 0.8732295
-0.053714998 0.10925302 0.86815596
-0.048973359 0.11128166 0.86510229
-0.18864945 0.068495952 0.96345526
-0.18635097 0.069277883 0.96187544
-0.15187451 0.081007108 0.93817705
-0.19840831 0.061061759 0.96812707
-0.19327211 0.06447611 0.96542162
-0.18445434 0.067724094 0.95948327
-0.168118 0.073281839 0.94825411
-0.16228361 0.075266764 0.94424367
-0.1463349 0.079455644 0.93266863
-0.14168063 0.081039079 0.92946935
-0.13514097 0.082466751 0.92457956
-0.12867683 0.084744416 0.92017508
-0.12284635 0.086073875 0.91584361
-0.11636686 0.088055298 0.9112795
-0.11088051 0.090078749 0.90758592
-0.1046841 0.093499839 0.9039765
-0.097693235 0.094589211 0.89853317
-0.090661265 0.096656047 0.89353842
-0.084399879 0.098611213 0.88914788
-0.078611337 0.10049603 0.88512707
-0.071894668 0.10319829 0.88071674
-0.065678976 0.10560045 0.87658644
-0.060538799 0.10882778 0.87378502
-0.053109974 0.10959846 0.86780918
-0.047346197 0.11160082 0.86386788
-0.20059741 0.061317392 0.97012693
-0.19610128 0.063868083 0.96754181
-0.19070788 0.065755859 0.96386063
-0.18447754 0.067867443 0.9595741
-0.17845026 0.070467874 0.95570326
-0.17154472 0.072292931 0.95069706
-0.16507892 0.074771367 0.94639057
-0.15866211 0.076892816 0.94194925
-0.15276879 0.080009311 0.93844849
-0.14716414 0.081027851 0.93415624
-0.13948701 0.081614792 0.92787707
-0.13300371 0.08466161 0.92383695
-0.12970315 0.08598794 0.92166889
-0.1186223 0.088713184 0.91353512
-0.10587163 0.093051076 0.90477055
-0.10181461 0.094431311 0.90198183
-0.098337136 0.095614374 0.89959157
-0.082109004 0.10113533 0.88843668
-0.058346421 0.1092196 0.8721028
-0.054289393 0.11059985 0.86931407
-0.11165045 0.087599829 0.90701789
-0.19624104 0.063327149 0.96739364
-0.19067352 0.066270769 0.96408617
-0.18404655 0.069548145 0.96003717
-0.17769402 0.071041241 0.95533991
-0.17155643 0.073214896 0.95116335
-0.16521189 0.075328045 0.94677985
-0.15869679 0.077680215 0.94236863
-0.15294784 0.079042599 0.93812329
-0.14627995 0.081431299 0.93359935
-0.1400964 0.083417915 0.92929095
-0.1335678 0.083728544 0.92385787
-0.12853798 0.08498469 0.92017519
-0.12143009 0.087433681 0.91530466
-0.11509228 0.088215023 0.91026771
-0.10902977 0.090655468 0.90628755
-0.10302749 0.092143491 0.90188748
-0.096981019 0.095588289 0.89841819
-0.090072259 0.098592937 0.89399302
-0.085711956 0.10093247 0.89141953
-0.077586725 0.10257198 0.88527781
-0.071363382 0.10431434 0.88081443
-0.064971335 0.10673849 0.87654412
-0.059501909 0.10831812 0.8726455
-0.052714385 0.11046156 0.86789787
-0.046118833 0.11289443 0.86345774
-0.18201271 0.071284622 0.9591561
-0.15158775 0.081635483 0.93824267
-0.19856849 0.059989102 0.96773332
-0.15742598 0.076065451 0.94048202
-0.15445362 0.077076711 0.93843883
-0.15029225 0.078492425 0.93557841
-0.13925445 0.081464492 0.92760372
-0.1350432 0.083016187 0.92476779
-0.12858056 0.084635891 0.92003894
-0.12135129 0.086935334 0.91499054
-0.11470664 0.088426992 0.91004264
-0.10835204 0.090757959 0.90575826
-0.10451734 0.094065465 0.90411377
-0.096890248 0.096281096 0.89868337
-0.090888917 0.097782038 0.89429051
-0.085343525 0.099914461 0.89060044
-0.077559434 0.10255857 0.88524771
-0.071272582 0.10380953 0.88048685
-0.065633819 0.106051 0.87677079
-0.058815621 0.10796025 0.87188101
-0.052644357 0.10918587 0.86720657
-0.045371696 0.11109649 0.86192852
-0.19852614 0.061516028 0.96845269
-0.1948044 0.064057812 0.96652585
-0.1894764 0.067327186 0.96358454
-0.18350722 0.069390908 0.95949775
-0.17629012 0.071767509 0.95449793
-0.17035677 0.073205352 0.95013201
-0.16434051 0.075250663 0.94599587
-0.15702052 0.077208564 0.94070071
-0.1513674 0.079639196 0.93706608
-0.14547326 0.081671327 0.9330278
-0.13911742 0.082833141 0.92816377
-0.13146745 0.084180839 0.92228425
-0.12600367 0.08651036 0.91876161
-0.11899399 0.08782012 0.9134112
-0.099977709 0.095820285 0.90109736
-0.093993858 0.09768682 0.89690042
-0.088079423 0.099698968 0.89283502
-0.082296439 0.10148274 0.88876909
-0.074697852 0.1028901 0.88296294
-0.06879168 0.10489941 0.87890327
-0.063548535 0.10741268 0.8756603
-0.056571811 0.10925934 0.87060386
-0.049891979 0.11132926 0.86591202
-0.043395251 0.11353953 0.86144626
-0.20213622 0.056048721 0.96883607
-0.19914448 0.057066519 0.96677965
-0.071740746 0.10068242 0.87933981
-0.067384623 0.10217582 0.87635106
-0.19947988 0.058930047 0.96798903
-0.1955823 0.063150726 0.96674263
-0.18958028 0.067512192 0.96376491
-0.18252702 0.068796694 0.9583649
-0.17578664 0.070995092 0.95368475
-0.16936944 0.073188551 0.94927883
-0.16340908 0.075220034 0.94518358
-0.15629604 0.076849386 0.93990296
-0.15094975 0.079228669 0.93650544
-0.14485282 0.080751285 0.93204153
-0.1387345 0.081930801 0.9273895
-0.13294153 0.083667152 0.9232915
-0.12612639 0.086405516 0.91881472
-0.12040207 0.088109337 0.9147594
-0.11422946 0.090256765 0.91053993
-0.10739832 0.09314891 0.90612555
-0.100974 0.09494368 0.90151608
-0.094946921 0.096243374 0.89700162
-0.088497832 0.098878033 0.8927868
-0.082225434 0.10110381 0.88852072
-0.076576434 0.10207096 0.88416517
-0.069868974 0.10392826 0.8793444
-0.062339395 0.10516968 0.87351537
-0.057233736 0.10680048 0.86995327
-0.18550906 0.069244035 0.96113819
-0.18103805 0.070765115 0.95806491
-0.19898249 0.05883079 0.96751434
-0.19561869 0.060300082 0.96536285
-0.19280358 0.064382724 0.96497446
-0.17706007 0.069738798 0.95415276
-0.17342699 0.070974827 0.95165539
-0.16555524 0.073652864 0.94624454
-0.15687612 0.076605566 0.94027877
-0.15083608 0.077946186 0.93577337
-0.14799519 0.079626955 0.93417418
-0.13830689 0.082923003 0.92751467
-0.13174573 0.083291918 0.92208248
-0.12544088 0.084461719 0.91726601
-0.1181963 0.087339208 0.91249055
-0.11302416 0.090492681 0.90962511
-0.10754459 0.092305176 0.90583307
-0.10158776 0.094047435 0.9015978
-0.09430711 0.096251927 0.89645833
-0.087685563 0.096931711 0.8911283
-0.080847576 0.098261468 0.88593489
-0.076350845 0.099381007 0.88264078
-0.19746579 0.061553758 0.96756405
-0.19261993 0.064991914 0.96511883
-0.18705675 0.066891879 0.96129835
-0.1806761 0.070291847 0.9575209
-0.17455751 0.071447603 0.9528569
-0.16815929 0.073705643 0.94849914
-0.16231349 0.07535924 0.94431496
-0.15543757 0.077416256 0.93944889
-0.14903465 0.078924276 0.93471593
-0.14241438 0.08028277 0.92972291
-0.13723624 0.083229594 0.92675006
-0.13035184 0.085360497 0.92191344
-0.12466556 0.086321078 0.91752279
-0.11503905 0.089596085 0.91090578
-0.11065773 0.091980442 0.9083364
-0.10567006 0.09367729 0.904908
-0.098794393 0.09512268 0.89973956
-0.091574527 0.097578943 0.89477676
-0.086159654 0.099421151 0.89105463
-0.19862315 0.062032316 0.96879131
-0.19426252 0.065276943 0.96666545
-0.18806611 0.067349948 0.96238887
-0.18104839 0.069875769 0.95763361
-0.1750464 0.072013244 0.95355523
-0.16865517 0.073610947 0.94887656
-0.16240086 0.075897202 0.94465595
-0.15542801 0.077622317 0.93954277
-0.14911187 0.08055412 0.93558872
-0.14348093 0.0817127 0.93134332
-0.13766439 0.082384616 0.92669833
-0.13183869 0.083430201 0.92223048
-0.12381452 0.086733915 0.91699874
-0.11723016 0.08981622 0.91288972
-0.11315969 0.090957932 0.90997148
-0.10601807 0.09297803 0.90485978
-0.099949449 0.094228446 0.90028536
-0.094007008 0.09473785 0.8954522
-0.1851894 0.070111148 0.96129376
-0.19862083 0.05931389 0.96744388
-0.19401759 0.060724389 0.96420264
-0.18986106 0.065972142 0.96324307
-0.17424467 0.070293531 0.95201796
-0.17146704 0.072492607 0.95072943
-0.16220212 0.075644635 0.94436091
-0.15670493 0.076619089 0.94013888
-0.15108418 0.079427056 0.9367187
-0.14456721 0.081332371 0.93208468
-0.13769445 0.083592579 0.92732191
-0.13188675 0.085334457 0.92321408
-0.12593567 0.086983018 0.91893733
-0.11831397 0.088277586 0.91305566
-0.11257331 0.090329587 0.90915859
-0.10677689 0.092934392 0.90548754
-0.19674574 0.062730029 0.96753001
-0.19135658 0.064824514 0.96395475
-0.18599923 0.068016931 0.9609502
-0.18103445 0.070816346 0.95808709
-0.17282158 0.071603239 0.95144838
-0.16659138 0.07455422 0.94757736
-0.16072868 0.076666184 0.94360554
-0.15435733 0.078638636 0.93912947
-0.14860469 0.080058508 0.93490928
-0.14176092 0.081671081 0.92985088
-0.13600305 0.084275469 0.92621249
-0.13006228 0.086916164 0.92243564
-0.12381786 0.088889167 0.91806835
-0.11469924 0.091034524 0.91132689
-0.11020018 0.092173643 0.90804052
-0.19456756 0.063029692 0.96581435
-0.19168118 0.066862568 0.96524125
-0.18479264 0.069362238 0.96058357
-0.17914382 0.070356734 0.95624179
-0.17234789 0.073168933 0.95181787
-0.16633964 0.074637912 0.94740331
-0.16112964 0.075776845 0.94350845
-0.15450738 0.078228019 0.93905467
-0.14765972 0.080512285 0.93432522
-0.14179102 0.082519002 0.93029618
-0.13497372 0.08421097 0.9252997
-0.12901589 0.08517167 0.92067671
-0.1235792 0.08668755 0.91677445
-0.19773795 0.061004981 0.96752524
-0.19269133 0.063442111 0.96441293
-0.18718526 0.066537999 0.9612332
-0.16017482 0.075727195 0.94266683
-0.15480204 0.077287905 0.93884158
-0.14853074 0.079382479 0.93451136
-0.14171633 0.080127217 0.9290486
-0.13531569 0.0821971 0.92459559
-0.19946092 0.06246417 0.96972197
-0.19520193 0.065120623 0.96739209
-0.18924335 0.067329019 0.96338588
-0.18432365 0.069162697 0.96008348
-0.17760339 0.0714534 0.95546621
-0.17148727 0.072883025 0.95093989
-0.16495334 0.075471632 0.94662964
-0.15862544 0.077764653 0.94234931
-0.15203263 0.078737773 0.9371891
-0.14619842 0.081038147 0.93333495
-0.13961211 0.08297094 0.92865533
-0.1334711 0.084235087 0.92402577
-0.12813701 0.085668296 0.92017037
-0.15926142 0.071405984 0.9397465
-0.15650696 0.071591668 0.93748122
-0.20094989 0.06139648 0.97046781
-0.19493581 0.061100177 0.9651745
-0.1904774 0.064415842 0.96300018
-0.18328267 0.069430888 0.95932537
-0.17775448 0.071813643 0.95577377
-0.17065255 0.073727764 0.9506436
-0.16536501 0.074253842 0.94637918
-0.15893906 0.074267231 0.94088674
-0.15253763 0.076889828 0.93670666
-0.14833672 0.078700438 0.93400776
-0.19345051 0.060405079 0.96355927
-0.19189718 0.062746435 0.96338886
-0.16906618 0.071076073 0.94797373
-0.19455056 0.065657511 0.96710032
-0.18937749 0.067842901 0.96375501
-0.182731 0.07016702 0.95921761
-0.1752924 0.072681092 0.95409632
-0.17109999 0.072571293 0.95045424
-0.19730416 0.063723639 0.96849954
-0.19253425 0.064708531 0.96490526
-0.1884674 0.065960489 0.96204466
-0.18293276 0.068662152 0.95864546
-0.17381088 0.070898712 0.9519462
-0.19686809 0.065507069 0.9690091
-0.19238216 0.067033209 0.96592563
-0.18629411 0.069104411 0.96174085
-0.18048802 0.071624763 0.95801967
