# .PCD v0.7 - Point Cloud Data file format
VERSION 0.7
FIELDS x y z
SIZE 4 4 4
TYPE F F F
COUNT 1 1 1
WIDTH 1057
HEIGHT 1
VIEWPOINT 0 0 0 1 0 0 0
POINTS 1057
DATA ascii
-0.035413265 0.11426357 0.85497409
-0.030987581 0.11584598 0.8519699
-0.031881828 0.11877789 0.8541863
-0.028729293 0.12236711 0.85326487
-0.037066463 0.12608728 0.86224079
-0.029966889 0.12759358 0.85691077
-0.027535267 0.13028865 0.8561638
-0.035748884 0.13576885 0.86590505
-0.030211782 0.13802084 0.8622812
-0.03334998 0.14237483 0.86712176
-0.030975565 0.14369258 0.86574197
-0.032529522 0.11435405 0.85255098
-0.029271744 0.11758634 0.85136294
-0.028829576 0.12548506 0.85489392
-0.028294891 0.12467028 0.85403305
-0.027114734 0.13368002 0.85748249
-0.028394544 0.1404151 0.86191112
-0.027434606 0.14082561 0.86129278
-0.036149159 0.1459226 0.87127304
-0.029098885 0.14831811 0.86642534
-0.027021859 0.14975464 0.86535883
-0.035696734 0.15507175 0.87541407
-0.029832684 0.15674172 0.8712225
-0.02752226 0.15488258 0.86832505
-0.033851303 0.16309266 0.87780476
-0.029877231 0.16356353 0.87463689
-0.03319918 0.11406419 0.85298055
-0.030137589 0.1165658 0.8515988
-0.029642215 0.11957674 0.85266507
-0.028788785 0.12153232 0.85290271
-0.027714783 0.1290904 0.85572433
-0.027620757 0.12943222 0.85581315
-0.028031003 0.13590801 0.85936922
-0.027438397 0.13768041 0.85973936
-0.027347237 0.14433204 0.86295342
-0.026679751 0.1455131 0.8629669
-0.026525017 0.15360886 0.86684138
-0.026346128 0.15427446 0.86701763
-0.028307855 0.16205882 0.87254918
-0.026548179 0.1611297 0.87058353
-0.03522874 0.16659607 0.88071746
-0.028221201 0.16820697 0.87551802
-0.026196109 0.16961622 0.87448251
-0.035034727 0.17503378 0.88472754
-0.029052028 0.17705585 0.88060862
-0.026649583 0.17664735 0.87835056
-0.034481678 0.18187375 0.88763958
-0.029820727 0.18400005 0.8847034
-0.031705391 0.11230445 0.85083133
-0.031361967 0.11558346 0.85216039
-0.02851994 0.11836632 0.85110563
-0.028734228 0.12478861 0.85446763
-0.028015897 0.12367716 0.85330284
-0.028199235 0.13312808 0.85813725
-0.027173785 0.1420192 0.86166036
-0.026605882 0.14233354 0.86132997
-0.027111322 0.14988837 0.86550164
-0.026239902 0.14934534 0.86448717
-0.027234001 0.15757734 0.86941212
-0.026451055 0.1660381 0.87292963
-0.026419554 0.16569802 0.87273443
-0.026107108 0.17427397 0.87671161
-0.026195025 0.17276081 0.87603784
-0.028146705 0.18295553 0.88275385
-0.026984114 0.18137842 0.88097835
-0.029372813 0.18905281 0.88682085
-0.02788223 0.18895794 0.88549834
-0.035327267 0.19456892 0.89464658
-0.030455917 0.19684055 0.89160222
-0.027627345 0.1958967 0.88871455
-0.036747571 0.11243333 0.85521013
-0.032230813 0.11526892 0.85274822
-0.028853737 0.1203832 0.85238951
-0.028967135 0.13074033 0.85761261
-0.027687125 0.12875012 0.85553223
-0.028723016 0.13675718 0.86038166
-0.027499627 0.13739908 0.85965258
-0.027849983 0.14504582 0.86373693
-0.027102383 0.14516845 0.86315787
-0.028230466 0.15488885 0.86893427
-0.027224958 0.15384364 0.86755651
-0.027906014 0.16077861 0.87157178
-0.027119521 0.16065861 0.87083924
-0.026808936 0.16979529 0.87509561
-0.026184879 0.17040616 0.87486386
-0.027101168 0.17784342 0.87932897
-0.027537372 0.18653041 0.88400179
-0.02776788 0.18474852 0.88331699
-0.027805783 0.19349304 0.88767743
-0.027177896 0.19214545 0.8864733
-0.03034482 0.2018678 0.89399529
-0.028074648 0.20170347 0.89197129
-0.030280802 0.2079227 0.89693725
-0.02786446 0.20954438 0.8956722
-0.036176834 0.21423937 0.90510929
-0.030684019 0.21748106 0.90201318
-0.027885724 0.21556197 0.89866871
-0.029849131 0.22256662 0.90381581
-0.035473347 0.11419407 0.85499108
-0.030153014 0.11673138 0.85169387
-0.029018279 0.12240439 0.85353059
-0.028136443 0.12457476 0.85385025
-0.028165098 0.13291974 0.85800505
-0.028081255 0.13232569 0.85763925
-0.027123699 0.14121979 0.86122179
-0.027120646 0.14163554 0.86142492
-0.027338179 0.14917521 0.86534286
-0.027787063 0.15622197 0.86921465
-0.027122552 0.156477 0.86877215
-0.027154092 0.16497891 0.87300706
-0.027055953 0.16647762 0.87366492
-0.026334431 0.17341612 0.87648159
-0.026045207 0.17160827 0.87533933
-0.02722753 0.18088146 0.88094079
-0.026795739 0.18118101 0.88071942
-0.027813941 0.18879192 0.88535768
-0.027298901 0.18928175 0.88515943
-0.027436644 0.19894081 0.89005792
-0.028038125 0.19686247 0.88954401
-0.027818114 0.20504873 0.8934074
-0.027459506 0.20582876 0.89348656
-0.027602538 0.21388645 0.89759701
-0.027345862 0.21189079 0.89638966
-0.028605554 0.22134572 0.90214729
-0.026908765 0.22175677 0.90089864
-0.029548548 0.22780167 0.90614963
-0.02670382 0.22999628 0.90480131
-0.035141021 0.23482765 0.91441274
-0.030331865 0.23718317 0.9114632
-0.029367426 0.24352446 0.9137764
-0.032110788 0.11485851 0.85244232
-0.033176668 0.11514203 0.85349488
-0.028742481 0.12017979 0.85219359
-0.026546864 0.12977022 0.85506129
-0.026434679 0.12933289 0.85474885
-0.026930671 0.13672487 0.85883182
-0.026525347 0.13833092 0.85927993
-0.026508758 0.1451143 0.8626231
-0.026585465 0.15434352 0.86725658
-0.026261704 0.15341276 0.86651886
-0.026305059 0.16155463 0.87058574
-0.02559153 0.16153386 0.86996484
-0.025496073 0.16916785 0.87366152
-0.024947096 0.1703928 0.87379795
-0.025547907 0.17720783 0.87768519
-0.026408184 0.1857572 0.88265282
-0.026206478 0.1854116 0.88230896
-0.027716178 0.1954204 0.88855469
-0.026523929 0.19357553 0.88662136
-0.027601074 0.2007709 0.89110446
-0.026251316 0.20177202 0.89044487
-0.026603281 0.20951192 0.89457685
-0.026595278 0.20966597 0.89464617
-0.026159076 0.21774173 0.89826989
-0.025947761 0.22550999 0.90193391
-0.025847074 0.23475607 0.90642399
-0.02585588 0.23238784 0.90525937
-0.027292 0.2428568 0.91166979
-0.026410595 0.24134725 0.91016853
-0.029672947 0.24880305 0.91665035
-0.025818497 0.25013861 0.91401297
-0.034605481 0.25613889 0.92450225
-0.030352436 0.25715071 0.92136335
-0.026617896 0.25642917 0.91781044
-0.033491734 0.1150568 0.85372233
-0.029413611 0.11849625 0.85193467
-0.028476808 0.12346148 0.85359043
-0.02693478 0.12542231 0.85324138
-0.027186159 0.13231294 0.85686696
-0.026308894 0.13394921 0.85692602
-0.026793037 0.1410331 0.8608464
-0.02613711 0.14120992 0.8603726
-0.026772808 0.15020663 0.86536944
-0.026351772 0.14880465 0.86431527
-0.026291369 0.15702397 0.86833161
-0.02610549 0.15756193 0.86843878
-0.025854187 0.16615433 0.87247646
-0.025516106 0.1638094 0.87102658
-0.025055019 0.17350349 0.87542999
-0.026558165 0.18243602 0.88113731
-0.025376962 0.1805934 0.87921453
-0.027549572 0.18979473 0.88562781
-0.026169371 0.19887294 0.88893986
-0.026227012 0.19738081 0.88825065
-0.025748689 0.204642 0.89143521
-0.025887221 0.20637278 0.89241034
-0.025846805 0.21391925 0.89611077
-0.024636999 0.21325195 0.89474517
-0.026777036 0.22150919 0.90066344
-0.025756856 0.22143832 0.8997553
-0.026548361 0.22950576 0.90442544
-0.026268071 0.23012152 0.90449041
-0.026954122 0.23718184 0.90857184
-0.026785167 0.24595749 0.91277081
-0.026263475 0.24610305 0.91239631
-0.026039004 0.25327206 0.91575241
-0.025817323 0.25322539 0.91553968
-0.028284352 0.26080349 0.92140156
-0.026942447 0.26210049 0.9208951
-0.029877348 0.26824087 0.92644584
-0.027246021 0.26987845 0.92500454
-0.0353605 0.27572641 0.93484294
-0.029955413 0.27776378 0.93122584
-0.027305737 0.27621728 0.92819291
-0.032844424 0.28203896 0.93581408
-0.030611865 0.28288659 0.93432307
-0.035419647 0.11342286 0.85456342
-0.031507779 0.11785617 0.85340995
-0.029187262 0.12129372 0.85312545
-0.027245082 0.12775378 0.85466075
-0.027426559 0.12939589 0.85562885
-0.026665483 0.13708119 0.85878128
-0.026350901 0.13597961 0.8579669
-0.026703719 0.14662173 0.86353606
-0.026221216 0.14509417 0.86236715
-0.026019521 0.15367489 0.86644137
-0.025896255 0.15336984 0.86618489
-0.026022449 0.16179165 0.87046111
-0.025538903 0.16028818 0.86930329
-0.025920156 0.16993032 0.87440181
-0.026326172 0.17714013 0.87831765
-0.025997333 0.17748387 0.87820637
-0.026828624 0.18557803 0.8829239
-0.027335621 0.19268978 0.88687754
-0.027034461 0.19321622 0.8868804
-0.026123973 0.20059283 0.88975221
-0.026068466 0.201878 0.89034092
-0.026197338 0.20997649 0.89445937
-0.025228415 0.20924065 0.89326596
-0.025860731 0.21778825 0.89803761
-0.025455352 0.22506635 0.90129286
-0.02542199 0.22605005 0.90175128
-0.026132207 0.23361504 0.90610331
-0.025543299 0.2321596 0.90487897
-0.028174357 0.24175358 0.91187888
-0.026550885 0.24170333 0.91046464
-0.027439281 0.24893898 0.91480619
-0.026414253 0.24988601 0.9143976
-0.025985261 0.25791717 0.91800541
-0.025881305 0.25563151 0.91678524
-0.026639236 0.2655687 0.92235225
-0.026242979 0.26580167 0.92212844
-0.026972305 0.27347437 0.92655009
-0.026195627 0.27341738 0.92585713
-0.028559506 0.28300789 0.93262684
-0.026832972 0.28171617 0.93050998
-0.029161718 0.28829741 0.9357602
-0.027441315 0.28901863 0.93464482
-0.029619757 0.29694191 0.94043064
-0.027580462 0.29577419 0.93810755
-0.033642884 0.30158883 0.94617337
-0.029295638 0.30520394 0.94424254
-0.032508001 0.11662573 0.85365695
-0.029204383 0.12132557 0.85315591
-0.028848801 0.12470488 0.8545242
-0.028484017 0.12427183 0.85399771
-0.027573347 0.13323265 0.85765344
-0.027107455 0.14250457 0.86184382
-0.02714777 0.14184371 0.86155117
-0.027258769 0.14917347 0.86527389
-0.027004961 0.14961983 0.86527765
-0.02642528 0.15834159 0.86909837
-0.026732195 0.1552563 0.86783397
-0.025649507 0.16582169 0.87213671
-0.02628614 0.17335373 0.87640935
-0.02554021 0.17437603 0.87627703
-0.026408173 0.18172784 0.88065845
-0.026240975 0.1810848 0.88019711
-0.027760953 0.19019832 0.88600844
-0.027289763 0.18990466 0.88545978
-0.026706642 0.19711237 0.88852823
-0.02662845 0.19818473 0.88899207
-0.026105421 0.20579709 0.89231217
-0.025735697 0.20502698 0.89161456
-0.026539082 0.21569158 0.89758039
-0.026209265 0.2145381 0.89672726
-0.027121851 0.22193696 0.90117013
-0.026072722 0.22204359 0.90032518
-0.025897238 0.23025881 0.90424109
-0.02658773 0.23911333 0.90921432
-0.025799558 0.23854823 0.90826023
-0.026511315 0.24638639 0.91274869
-0.025945801 0.24671249 0.91242617
-0.026500328 0.25451767 0.91676372
-0.025847897 0.2541509 0.91602385
-0.026636414 0.26253513 0.92084825
-0.026586728 0.26205438 0.92056787
-0.026934531 0.27048519 0.92503822
-0.026497312 0.27030295 0.9245739
-0.026509397 0.27808154 0.92843407
-0.026077047 0.27703312 0.92754525
-0.027638763 0.2881982 0.93440771
-0.026619224 0.28593326 0.93241423
-0.027602866 0.29402006 0.93725848
-0.026184451 0.294357 0.93621141
-0.028340941 0.30280483 0.94223803
-0.027873902 0.30176753 0.94132489
-0.026306199 0.29991537 0.93906659
-0.028673012 0.30943379 0.94580305
-0.028196488 0.30955893 0.94545728
-0.029382471 0.31708193 0.95019555
-0.02815615 0.31616849 0.94869399
-0.033580568 0.32276431 0.95660049
-0.029936781 0.32544714 0.9548102
-0.03422606 0.11440741 0.85402918
-0.030608349 0.11940574 0.8534072
-0.027609959 0.12278665 0.85251462
-0.028076716 0.12849531 0.85573953
-0.028145943 0.13524495 0.85913944
-0.027689084 0.13727231 0.85975182
-0.027311448 0.14457484 0.86304295
-0.026944783 0.14484107 0.86286092
-0.026996043 0.15368649 0.86728281
-0.028014496 0.15967651 0.87111908
-0.026117429 0.16167861 0.8704865
-0.024027612 0.1614567 0.86858827
-0.025966715 0.17064492 0.87479532
-0.024927836 0.17000206 0.87358803
-0.026014637 0.17763579 0.87829632
-0.025107674 0.17762621 0.87751544
-0.027890112 0.18699813 0.88453501
-0.027097754 0.18444005 0.88259095
-0.027013373 0.19336718 0.88693708
-0.026429322 0.20081711 0.89012456
-0.02684837 0.21223396 0.89613378
-0.025998708 0.20970434 0.89415467
-0.027366716 0.2177088 0.89928705
-0.026477512 0.21502766 0.89719909
-0.028884733 0.22779906 0.90558022
-0.026615439 0.22619092 0.90284228
-0.028523443 0.22927681 0.9060024
-0.026840318 0.23358577 0.90669471
-0.026185634 0.24213278 0.91036469
-0.026498133 0.24143961 0.91028911
-0.026112068 0.25027263 0.91433054
-0.026100788 0.25857455 0.91842979
-0.026281573 0.26596382 0.92224163
-0.02509585 0.26580384 0.92114776
-0.026434539 0.27368522 0.92619419
-0.02502884 0.27244863 0.92437917
-0.026995994 0.28331202 0.93143934
-0.026461452 0.28213269 0.93039823
-0.026812766 0.28977087 0.93447924
-0.026221586 0.28923625 0.93370879
-0.026561458 0.29797363 0.93832415
-0.027576186 0.30682403 0.94357288
-0.026616856 0.30565691 0.9421742
-0.027612213 0.31355539 0.9469353
-0.027482923 0.31144828 0.94578171
-0.028720303 0.32404757 0.95307648
-0.028062236 0.32165179 0.95132756
-0.02918398 0.33054781 0.95669055
-0.028423928 0.32851565 0.95503426
-0.031324774 0.11837912 0.85351217
-0.031072862 0.11818464 0.85320032
-0.028729513 0.12390767 0.85402757
-0.02788987 0.13259263 0.85760754
-0.027502827 0.13308156 0.85751832
-0.027203023 0.14061789 0.86099172
-0.027207091 0.14128788 0.86132681
-0.026382819 0.14927942 0.86457682
-0.026563227 0.147403 0.86380243
-0.026418269 0.15678246 0.8683207
-0.025293533 0.16591485 0.87187809
-0.025029555 0.1651901 0.87129354
-0.025286768 0.17362896 0.87569022
-0.024590228 0.17381085 0.8751843
-0.025846776 0.18227282 0.88044786
-0.024409354 0.18050364 0.87834203
-0.027698938 0.18911728 0.88542038
-0.027218871 0.18847634 0.88469231
-0.028516676 0.19654334 0.88979548
-0.027219813 0.20521764 0.89297903
-0.02719209 0.20576632 0.8932268
-0.026413653 0.21339655 0.89633715
-0.026788067 0.21425441 0.89708209
-0.028014621 0.22304796 0.90248406
-0.026895255 0.22154604 0.90078276
-0.026713341 0.21966322 0.89969516
-0.027844189 0.22928426 0.90542489
-0.027375184 0.22965187 0.90520537
-0.027065432 0.23663509 0.9083966
-0.027185183 0.23878565 0.90956348
-0.027535388 0.24555364 0.91321284
-0.026763344 0.24374995 0.91165948
-0.026060577 0.25513285 0.91669184
-0.02641858 0.25359666 0.91623795
-0.026101006 0.26157746 0.91991615
-0.026766183 0.26199031 0.92068976
-0.025651241 0.26980364 0.9236027
-0.026649266 0.2781561 0.92859077
-0.026158717 0.27870744 0.92844397
-0.027359664 0.2859216 0.93304205
-0.026526043 0.28624114 0.93248695
-0.026913151 0.29389438 0.93660611
-0.02747724 0.30196747 0.9410845
-0.026961908 0.30178541 0.94055331
-0.027506016 0.30966172 0.94491726
-0.027555268 0.30798674 0.94413042
-0.028213125 0.31860682 0.94994962
-0.027536763 0.31754652 0.94884604
-0.027889661 0.32551199 0.95309043
-0.027233159 0.32652017 0.95302767
-0.02833382 0.33271611 0.95703608
-0.026812622 0.33361927 0.95618141
-0.031389631 0.11668442 0.8527289
-0.033192396 0.11712156 0.85448802
-0.029050238 0.12109155 0.85290825
-0.028501809 0.12674546 0.85523731
-0.027061589 0.13038185 0.85580444
-0.027261458 0.13628596 0.85889769
-0.026232108 0.13785312 0.85879242
-0.026627682 0.14574012 0.86303461
-0.025784798 0.14676344 0.86281979
-0.02585797 0.15390897 0.8664189
-0.025327727 0.15232104 0.86517924
-0.026157178 0.16070116 0.87003678
-0.024865538 0.16318184 0.87015915
-0.024960622 0.16999847 0.87361443
-0.024555683 0.17106287 0.87379467
-0.024814427 0.17844112 0.87766784
-0.023826905 0.17810243 0.87665516
-0.025842667 0.18567668 0.88212895
-0.025340222 0.18623504 0.88197535
-0.0271382 0.19428886 0.88750005
-0.025827087 0.19437689 0.88642168
-0.02864904 0.20078862 0.89200997
-0.026444569 0.20274873 0.89109355
-0.027765818 0.20866804 0.895154
-0.025844906 0.21033819 0.89433676
-0.026629053 0.21781749 0.8987096
-0.025992692 0.21762279 0.89806867
-0.026054807 0.22653863 0.90253454
-0.026957702 0.23184378 0.90593296
-0.025489267 0.23509014 0.90628308
-0.026799604 0.2419734 0.91081125
-0.025565963 0.24298301 0.91025513
-0.027658647 0.24999325 0.91551566
-0.026098132 0.25034332 0.91435355
-0.02708645 0.25684309 0.91841632
-0.02612019 0.2590104 0.91866195
-0.026714867 0.26662543 0.92293996
-0.025598712 0.26680094 0.92207164
-0.026810057 0.27376884 0.92655689
-0.026181877 0.27491197 0.9265852
-0.025046032 0.2722019 0.92427176
-0.026203625 0.28173581 0.92998105
-0.02554005 0.28301638 0.93004709
-0.025994096 0.29045284 0.93411624
-0.025193242 0.28944525 0.9329322
-0.02722868 0.29642254 0.93812734
-0.026096316 0.29804131 0.93795955
-0.026601518 0.30604509 0.94235319
-0.025729157 0.30729643 0.94222593
-0.026528785 0.31432486 0.9463889
-0.025113467 0.31368589 0.94486147
-0.027790239 0.31930396 0.94993269
-0.025893865 0.32329953 0.95028752
-0.026567185 0.32900175 0.95368588
-0.02540195 0.33073264 0.95354545
-0.029754102 0.11970929 0.85282648
-0.028761312 0.12322879 0.85371876
-0.027402028 0.12507877 0.8534711
-0.026525848 0.13237172 0.85633099
-0.0260197 0.13372007 0.85656512
-0.026244111 0.14096579 0.8603434
-0.026087508 0.14242643 0.86093223
-0.026035622 0.14967641 0.8644762
-0.026390351 0.15756521 0.86868417
-0.024883099 0.15747502 0.86734968
-0.024620645 0.1648034 0.87075216
-0.024091542 0.16548935 0.87063891
-0.023958139 0.17446572 0.87496746
-0.023575656 0.17401575 0.87441748
-0.025882244 0.18428248 0.88147277
-0.024746239 0.18229629 0.87951756
-0.026501842 0.19005349 0.88485932
-0.026110075 0.18932809 0.88416499
-0.026427433 0.19772504 0.88859254
-0.025513627 0.20487909 0.89135128
-0.025254302 0.21598113 0.89662421
-0.024804343 0.21298033 0.89475399
-0.026071474 0.22245258 0.90052646
-0.025633741 0.23047048 0.90412033
-0.02567444 0.22983234 0.90383929
-0.025003865 0.23836571 0.90748888
-0.024780858 0.23865543 0.9074415
-0.025418974 0.24610968 0.91167688
-0.025684521 0.25490203 0.91625577
-0.025947098 0.25377333 0.91592187
-0.025821846 0.26226509 0.92001766
-0.025436934 0.26334715 0.92022371
-0.025196869 0.27056158 0.92358899
-0.026468871 0.27828512 0.92850024
-0.025702357 0.27870306 0.92805117
-0.025825065 0.2861568 0.93184531
-0.025862785 0.2863934 0.93199468
-0.025479399 0.29464069 0.93574852
-0.02633735 0.30287901 0.94056004
-0.025867492 0.30224216 0.93984288
-0.025697429 0.31030723 0.94368899
-0.026038738 0.3104617 0.94405758
-0.025403844 0.3188895 0.94768548
-0.025114175 0.32704535 0.95147425
-0.025651442 0.32659826 0.95171279
-0.024699546 0.33322525 0.95417809
-0.032545015 0.11780341 0.85427153
-0.028081447 0.12188867 0.85247374
-0.026724614 0.12769756 0.85418755
-0.026366197 0.12870878 0.85438138
-0.025443614 0.13664991 0.85752225
-0.024731718 0.13815641 0.85765862
-0.025491759 0.1449596 0.86167616
-0.02637627 0.15339294 0.86660707
-0.025735982 0.15334637 0.86603618
-0.025261581 0.16224122 0.87003249
-0.025226675 0.16119817 0.86948651
-0.025227085 0.16946903 0.87358034
-0.024259403 0.17703114 0.876495
-0.025854103 0.1863685 0.8824811
-0.0251645 0.18386015 0.88064951
-0.02725336 0.19538704 0.88814217
-0.026150674 0.19376209 0.88639426
-0.026935495 0.20102629 0.89066118
-0.026678227 0.20177855 0.89081347
-0.026219562 0.20920673 0.89409745
-0.026449159 0.21835226 0.89882028
-0.02561282 0.22695968 0.90236467
-0.025745034 0.22525275 0.90163314
-0.025407337 0.234078 0.90571195
-0.025101259 0.23290685 0.90487039
-0.025196277 0.24206188 0.9094829
-0.025663994 0.25161284 0.91461033
-0.025284141 0.24948457 0.91323197
-0.026241776 0.25855803 0.91854227
-0.025515813 0.25784397 0.91756749
-0.025745161 0.26556432 0.9215849
-0.024986096 0.27510434 0.92565703
-0.024664178 0.27339041 0.92453331
-0.024997298 0.28174758 0.92895472
-0.024194788 0.27996668 0.9273864
-0.024796765 0.28936464 0.93255305
-0.025413251 0.29821989 0.93746334
-0.024672188 0.29750866 0.93647718
-0.024688972 0.30664745 0.94101471
-0.023331959 0.30498189 0.93902898
-0.026034418 0.31337219 0.94549447
-0.025840407 0.32133543 0.94926965
-0.026177812 0.32112527 0.94945449
-0.025384208 0.33014417 0.95323902
-0.025741665 0.32943282 0.95319277
-0.033224143 0.11665992 0.85428667
-0.028872102 0.11968435 0.85205925
-0.028452888 0.12249662 0.85309249
-0.026861906 0.12470366 0.85282332
-0.026295789 0.13299246 0.85644126
-0.026011795 0.13352379 0.85646123
-0.025731847 0.14055455 0.85970134
-0.026113667 0.1498643 0.86463594
-0.025875971 0.14934053 0.86417323
-0.025305815 0.15653452 0.86724591
-0.025267072 0.15843633 0.86815411
-0.024938174 0.16553317 0.87138516
-0.024579614 0.16625014 0.87143314
-0.025879078 0.17413287 0.8764466
-0.025323406 0.1735 0.87565786
-0.025653154 0.18106101 0.8796823
-0.026101619 0.18270247 0.88087845
-0.02658008 0.19037801 0.88508683
-0.02612634 0.19718111 0.88806564
-0.026049875 0.19760504 0.88821006
-0.026238993 0.20513298 0.89209777
-0.025609121 0.2065202 0.89224535
-0.027073324 0.2128357 0.89662415
-0.026387565 0.21322244 0.89622867
-0.026228532 0.2204724 0.89968079
-0.026052415 0.22161765 0.90009695
-0.025949255 0.22908869 0.90370643
-0.026247017 0.22873634 0.90378684
-0.02606225 0.23810111 0.90826368
-0.026289448 0.24554843 0.91214401
-0.026452959 0.24524653 0.91213459
-0.02495322 0.25398514 0.91517627
-0.024881158 0.25491151 0.91557306
-0.024872001 0.2619172 0.91903257
-0.024420217 0.26149106 0.91843504
-0.025848988 0.26801556 0.92288703
-0.025113497 0.27029061 0.92338359
-0.025337357 0.27744356 0.92711544
-0.026121378 0.2784161 0.9282676
-0.025333926 0.28578997 0.93124342
-0.025514681 0.2929123 0.93492323
-0.025042169 0.29359564 0.93485707
-0.025882177 0.30282527 0.940144
-0.026307411 0.30239153 0.94029325
-0.026248366 0.31052873 0.94427013
-0.025993412 0.31780848 0.94765502
-0.025491633 0.31763935 0.94714189
-0.026215548 0.32556921 0.95168614
-0.025296692 0.32559219 0.95091122
-0.026532432 0.33379659 0.95602942
-0.030653723 0.11886175 0.85317677
-0.027451456 0.1241404 0.85304904
-0.02725029 0.12907955 0.85532141
-0.026336856 0.13011765 0.8550536
-0.026474424 0.13674998 0.85845393
-0.02684363 0.14721395 0.86394882
-0.026368931 0.14470282 0.8622998
-0.026270479 0.15379688 0.8667165
-0.02665972 0.15433045 0.86731368
-0.025623918 0.1616722 0.87006104
-0.025501452 0.15906784 0.86866719
-0.025257774 0.16983524 0.87378788
-0.025042571 0.17733434 0.87731534
-0.024864204 0.17825446 0.87761807
-0.026479475 0.18538195 0.88252795
-0.025747068 0.18359643 0.88101751
-0.026203789 0.19636866 0.88772976
-0.026013471 0.19368635 0.88623935
-0.026350491 0.20169786 0.89049292
-0.025444999 0.20141366 0.88957745
-0.025841579 0.2095145 0.89392626
-0.026536338 0.21859688 0.89901602
-0.025664441 0.21749258 0.89772332
-0.026810773 0.22550923 0.90267211
-0.026406027 0.22487509 0.90201187
-0.026983589 0.23383024 0.90693831
-0.026331618 0.24238358 0.91061372
-0.026307113 0.24138641 0.91009927
-0.026485667 0.2501798 0.91460419
-0.025264978 0.24944544 0.91319615
-0.02637729 0.25734356 0.91805708
-0.025414519 0.26673594 0.92188185
-0.024403386 0.27423149 0.92472631
-0.025206558 0.28144252 0.92898273
-0.023803357 0.27952307 0.9268319
-0.026721966 0.29045874 0.93474197
-0.026045296 0.29016539 0.93401784
-0.026637346 0.29847735 0.93863833
-0.026355807 0.3064411 0.94233894
-0.026763763 0.31324327 0.9460547
-0.025916949 0.31379086 0.94560111
-0.026389744 0.32093349 0.94954073
-0.025282931 0.32075891 0.94850719
-0.026248422 0.330035 0.95392466
-0.032078698 0.11839159 0.85416359
-0.028829932 0.12014385 0.85225058
-0.028530881 0.1234118 0.85361212
-0.02737391 0.12502478 0.85342032
-0.026556894 0.13225305 0.85629874
-0.025906056 0.13210249 0.85566723
-0.027220771 0.14026159 0.86083055
-0.026472241 0.14063859 0.86037654
-0.026847936 0.14921826 0.86494446
-0.026243225 0.14844888 0.86404622
-0.026546299 0.15704842 0.86856192
-0.025748111 0.16762459 0.87311327
-0.024975516 0.16519478 0.87124956
-0.025352195 0.17291085 0.87539089
-0.024515621 0.17407791 0.87525272
-0.025032565 0.18081841 0.87903112
-0.025451101 0.18122952 0.87959278
-0.026956618 0.18935642 0.88490343
-0.02618099 0.18939778 0.88426018
-0.026429012 0.19636643 0.88792145
-0.025699697 0.19740014 0.88780892
-0.026365988 0.20564535 0.89245999
-0.02533295 0.2031976 0.89036441
-0.026672281 0.21331921 0.8965202
-0.026517451 0.2126966 0.89607954
-0.025908634 0.22090933 0.89962333
-0.025907822 0.22233108 0.90032625
-0.026370794 0.22974886 0.90439379
-0.025386028 0.22876206 0.9030627
-0.027530447 0.23661 0.90878206
-0.026575096 0.23766325 0.90848589
-0.026650764 0.24505344 0.91220832
-0.026443303 0.24484827 0.91192913
-0.025460444 0.25380751 0.9155224
-0.026462823 0.26141131 0.92014354
-0.025262676 0.26204956 0.9194324
-0.026796237 0.26898986 0.92417991
-0.025642879 0.26960668 0.92349809
-0.02566912 0.27693507 0.92714769
-0.025671534 0.2874406 0.93234932
-0.025530368 0.28624031 0.93163443
-0.026326299 0.29448301 0.93639517
-0.026762128 0.29188472 0.93548214
-0.027601719 0.30173954 0.94107813
-0.026314531 0.30181798 0.94001538
-0.027045511 0.30871236 0.94405329
-0.026160933 0.30915496 0.94351536
-0.02632504 0.31826794 0.94816619
-0.026815247 0.31744915 0.94818038
-0.027543005 0.32673395 0.95339853
-0.026570059 0.32618272 0.95229322
-0.026696876 0.33306092 0.9558059
-0.026323143 0.33418211 0.9560411
-0.029730707 0.12026113 0.85307956
-0.026610345 0.12849784 0.85448581
-0.027235895 0.13758247 0.85951751
-0.026482806 0.13677825 0.85847503
-0.02711907 0.14491712 0.86304778
-0.026457056 0.14536896 0.86270487
-0.026260361 0.15334862 0.86648595
-0.026212953 0.16187648 0.87066621
-0.025686502 0.16096762 0.86976576
-0.02471029 0.16874075 0.87277764
-0.024357878 0.17031713 0.87325633
-0.024236105 0.17705199 0.87648535
-0.024371676 0.17556909 0.87586755
-0.026461676 0.18671525 0.88317275
-0.025875248 0.18487443 0.8817597
-0.026667416 0.19348055 0.88669711
-0.026981249 0.19090119 0.88568902
-0.026017666 0.20131877 0.89002049
-0.026981622 0.21001309 0.89514863
-0.026220545 0.20942867 0.89420813
-0.026783995 0.21664819 0.89826345
-0.026260264 0.21768802 0.89832997
-0.025607035 0.22552657 0.90165043
-0.025060035 0.23281252 0.90478843
-0.025675207 0.24142116 0.90957558
-0.025532149 0.24124415 0.90936559
-0.02616699 0.24988848 0.91418737
-0.025691442 0.25881541 0.91819865
-0.026274502 0.25705954 0.91782862
-0.02573029 0.26633558 0.92195386
-0.026009925 0.26422101 0.92114663
-0.025423177 0.27437264 0.9256689
-0.027469084 0.28257015 0.93147695
-0.026650243 0.28152531 0.93025911
-0.026926361 0.29050869 0.93494165
-0.02684994 0.28679049 0.93303597
-0.027385522 0.29928938 0.93968052
-0.026511349 0.29742947 0.93801188
-0.026212633 0.30408666 0.94105113
-0.026027329 0.30650163 0.94208777
-0.02607559 0.31428745 0.94598258
-0.025234215 0.31224716 0.94425273
-0.026987173 0.32202563 0.95059264
-0.02677926 0.32906163 0.95389712
-0.02608636 0.32952511 0.95353353
-0.029387593 0.11780991 0.85157269
-0.026031449 0.11914001 0.84935892
-0.030909181 0.11929338 0.85360897
-0.026966363 0.12414323 0.85263526
-0.024567798 0.12658483 0.85179114
-0.026200861 0.13420403 0.85695958
-0.025897115 0.13257234 0.85589212
-0.026446134 0.14028494 0.86017931
-0.025451958 0.14265881 0.86050338
-0.025783092 0.14823946 0.86354882
-0.024447456 0.14895502 0.86276001
-0.02568692 0.15803899 0.86831665
-0.024974331 0.15688799 0.86713725
-0.025145173 0.16315249 0.87038392
-0.024446443 0.16595054 0.87117082
-0.023876473 0.17196375 0.87365925
-0.02365528 0.17342478 0.87419313
-0.024583541 0.18066132 0.87856907
-0.026280038 0.18986946 0.88457841
-0.025278956 0.18778014 0.88268757
-0.02759286 0.19805643 0.88975382
-0.027080923 0.19676104 0.88867462
-0.024976693 0.19492212 0.88596368
-0.025931783 0.20571956 0.89212513
-0.026502341 0.20483191 0.89217412
-0.026034102 0.21240225 0.89552021
-0.025019914 0.21574801 0.8963083
-0.025715075 0.22074144 0.8993746
-0.02503071 0.22095448 0.89889443
-0.026751608 0.23117465 0.90542543
-0.025539756 0.22810724 0.90287018
-0.026923843 0.23954947 0.9097178
-0.025920875 0.23590995 0.90705824
-0.025959879 0.24616438 0.91216689
-0.025555246 0.25420308 0.9157992
-0.025232375 0.25317329 0.91501331
-0.025852993 0.2603516 0.91909719
-0.02468539 0.26349756 0.91965503
-0.025945246 0.26971748 0.92381167
-0.02487766 0.27791905 0.92695737
-0.026010148 0.28505814 0.9314599
-0.024694562 0.28663242 0.9311133
-0.025901087 0.29240113 0.9350009
-0.023863696 0.29354945 0.93382567
-0.026045904 0.30125073 0.93950486
-0.025638402 0.30090415 0.93898457
-0.025965437 0.3085416 0.94304454
-0.024847358 0.31072518 0.94316834
-0.026552916 0.31966838 0.94905424
-0.025862351 0.31776834 0.94752294
-0.026204344 0.32471618 0.95125431
-0.025776468 0.32671368 0.95187682
-0.0254151 0.33317545 0.9547658
-0.024620906 0.33397138 0.95448005
-0.025957242 0.12281935 0.85111642
-0.02408953 0.12868799 0.85242277
-0.024951726 0.13591455 0.85673732
-0.023270756 0.13726668 0.85596806
-0.025111973 0.14528224 0.86151087
-0.024224073 0.14449921 0.86036348
-0.024700478 0.15347853 0.86521542
-0.024416849 0.16296767 0.8696692
-0.024004102 0.16194013 0.86880744
-0.023617834 0.16969049 0.87231284
-0.023399532 0.17047754 0.87251556
-0.023820281 0.17591304 0.87556577
-0.025187299 0.18655293 0.8820017
-0.024511144 0.18398288 0.88015115
-0.025897428 0.19370794 0.88615078
-0.026050791 0.19035393 0.88462198
-0.026196137 0.20132549 0.89017665
-0.02557686 0.20109752 0.88953376
-0.026237823 0.2086198 0.89382255
-0.025412135 0.20777984 0.8927002
-0.025535591 0.21680564 0.89727306
-0.025528572 0.21457481 0.89616293
-0.024791352 0.22511706 0.90074974
-0.024946883 0.23401946 0.90528899
-0.024555072 0.23320308 0.9045496
-0.025306597 0.24109347 0.90909803
-0.024004497 0.24289326 0.90887457
-0.025834136 0.24931914 0.91362065
-0.024918191 0.24909669 0.91272676
-0.024776503 0.25731423 0.91667265
-0.024992973 0.25738567 0.91689324
-0.024252228 0.2653355 0.92019403
-0.024860553 0.26589388 0.920991
-0.024492629 0.27346632 0.92442399
-0.025059924 0.28264654 0.92945307
-0.024697773 0.28155112 0.92860103
-0.024822928 0.28974807 0.93276525
-0.025435902 0.299216 0.9379757
-0.02387026 0.29805714 0.9360624
-0.025485545 0.30616584 0.94145805
-0.024457999 0.30490062 0.93995243
-0.024862215 0.31417421 0.94488811
-0.02531521 0.32164967 0.94897574
-0.024574764 0.32182786 0.94843024
-0.025365561 0.32894441 0.95262933
-0.025377706 0.33003348 0.9531787
-0.022601858 0.14321749 0.85834086
-0.023869917 0.14874053 0.86215961
-0.024690285 0.15682279 0.86686182
-0.023466066 0.1584882 0.86663854
-0.024394348 0.16397606 0.87014902
-0.023232952 0.16570592 0.87001133
-0.024264246 0.17326237 0.87463385
-0.025296792 0.18220578 0.87994391
-0.024322674 0.18131603 0.87866992
-0.026077613 0.18950154 0.8842231
-0.025488228 0.18769038 0.88282228
-0.026632518 0.19760245 0.88870734
-0.026221156 0.19613186 0.88762742
-0.026643574 0.20462537 0.89219272
-0.027388096 0.20221189 0.8916353
-0.02555865 0.21331012 0.89556271
-0.026108824 0.2218914 0.90028071
-0.026118807 0.22048694 0.89959419
-0.025841624 0.2293283 0.9037329
-0.026860975 0.22665974 0.90328443
-0.025552809 0.23830301 0.90792763
-0.025183231 0.24782401 0.91232371
-0.024861589 0.2454896 0.91089296
-0.024505332 0.25207311 0.91384661
-0.024853267 0.25472331 0.91545606
-0.025202572 0.2620416 0.91937703
-0.024691336 0.26228389 0.91905951
-0.02511806 0.26959309 0.92304224
-0.024683967 0.27779487 0.92673022
-0.024491705 0.27830762 0.92681938
-0.024398856 0.28603491 0.93056446
-0.023494579 0.28803164 0.93077886
-0.025317095 0.29600009 0.9362824
-0.025065683 0.29350531 0.93483245
-0.024611309 0.30162242 0.93846118
-0.025596246 0.3024236 0.93970048
-0.024902649 0.31035167 0.94303083
-0.024446078 0.30787084 0.94141233
-0.025798038 0.31617993 0.9466818
-0.025163159 0.31819117 0.9471339
-0.024632171 0.32620597 0.95064628
-0.024966091 0.32676205 0.95120728
-0.025423393 0.33437335 0.95536572
-0.024203926 0.33449692 0.95438337
-0.023246542 0.16399349 0.86917537
-0.023283407 0.1571364 0.86581314
-0.023398444 0.17059907 0.87257475
-0.024758354 0.17792875 0.87736619
-0.02379556 0.17874897 0.8769483
-0.019669369 0.18361253 0.87582445
-0.024362966 0.18515866 0.88060623
-0.022919491 0.18580349 0.87969017
-0.026055023 0.19497916 0.88691485
-0.025174513 0.19276924 0.88506746
-0.023219854 0.19158982 0.88281107
-0.026516378 0.20109002 0.89033413
-0.02585192 0.20125279 0.88984603
-0.027323052 0.20849079 0.89468741
-0.025946766 0.21611492 0.89728308
-0.026345238 0.22615877 0.9025951
-0.0261489 0.22494757 0.90182757
-0.027103856 0.23365372 0.90695381
-0.025601223 0.23134765 0.90452653
-0.026287958 0.24064481 0.90971577
-0.025476135 0.24882913 0.91307175
-0.025395118 0.24917696 0.91317469
-0.025787331 0.25718841 0.91747534
-0.025273316 0.25518763 0.91604531
-0.024957351 0.26530933 0.92078447
-0.025278591 0.27300185 0.9248668
-0.02504921 0.27353457 0.92493409
-0.025194436 0.28091046 0.92870903
-0.024303943 0.2890662 0.93198347
-0.024835616 0.29900956 0.93735993
-0.023777373 0.29742494 0.93566996
-0.025644965 0.3058894 0.94145751
-0.025001004 0.30579886 0.9408617
-0.024931006 0.31360191 0.94466382
-0.02453237 0.32000262 0.94749057
-0.02460219 0.32180184 0.94844091
-0.024902068 0.33018267 0.95284551
-0.025081389 0.3279691 0.95190334
-0.02274172 0.19109903 0.88215905
-0.025175229 0.19769076 0.88750398
-0.023384437 0.19802722 0.88613796
-0.025024816 0.20473564 0.89086199
-0.023145974 0.20537372 0.88957
-0.026893333 0.21322471 0.89666259
-0.025903851 0.21247619 0.89544541
-0.023582727 0.21156034 0.89300579
-0.026902676 0.2215035 0.90076804
-0.026314527 0.21953547 0.89929068
-0.026370227 0.22927625 0.90415943
-0.026359811 0.23796767 0.90845233
-0.025149152 0.2368204 0.90684843
-0.025753826 0.24444348 0.91113883
-0.025291637 0.2443181 0.91068125
-0.025775835 0.25291017 0.91534811
-0.026031032 0.26187345 0.92000282
-0.025428645 0.26188943 0.91949522
-0.024766564 0.26833439 0.92211848
-0.025370456 0.27031571 0.92361581
-0.024560191 0.27719843 0.92632896
-0.024637565 0.27763435 0.92661095
-0.025497556 0.28661641 0.9317925
-0.024752885 0.28539902 0.9305526
-0.024602309 0.29178211 0.93358302
-0.024702281 0.29377538 0.93465513
-0.025129594 0.30219749 0.93918926
-0.025324166 0.29980254 0.93817043
-0.024825417 0.30963674 0.94261098
-0.025494225 0.31839967 0.94752043
-0.025021918 0.31768066 0.94676024
-0.02491916 0.32606661 0.95082295
-0.025838569 0.33485579 0.9559598
-0.025227629 0.33336937 0.95470136
-0.024749398 0.19989765 0.88823175
-0.02587083 0.21696019 0.89763635
-0.024894804 0.21830836 0.89746839
-0.025888354 0.22455692 0.90141129
-0.023980245 0.22629425 0.90063822
-0.026384518 0.23422948 0.90662324
-0.025336251 0.23327158 0.9052521
-0.02260451 0.2339208 0.90323567
-0.025532424 0.24227229 0.90987474
-0.026153535 0.24129292 0.90992147
-0.026297465 0.24950844 0.91411084
-0.026169002 0.24715316 0.91283524
-0.026628777 0.25749227 0.91834587
-0.025407061 0.26557368 0.92130023
-0.025517195 0.26645485 0.92183053
-0.025419474 0.27407724 0.92551947
-0.024410486 0.27400905 0.92462242
-0.025524631 0.28195333 0.92950773
-0.02486822 0.29056635 0.93320882
-0.024955869 0.28920734 0.93261135
-0.024805754 0.29853275 0.93709821
-0.024392046 0.29764548 0.93630517
-0.024477303 0.30578139 0.94040489
-0.0256534 0.31328529 0.94512528
-0.025117345 0.31455892 0.94529688
-0.025525481 0.32216427 0.94941032
-0.025677189 0.32970718 0.95327342
-0.026352346 0.22136754 0.90022981
-0.023831531 0.2405788 0.90758097
-0.025453195 0.24584809 0.91157663
-0.023745701 0.24602845 0.91020477
-0.027020678 0.25515455 0.91752422
-0.025727376 0.25435001 0.91601926
-0.02324827 0.25671488 0.91506815
-0.0266269 0.26107889 0.92011946
-0.025418937 0.2625683 0.91982287
-0.026276246 0.26903361 0.92375648
-0.025929779 0.27014354 0.92400932
-0.02561532 0.27828771 0.92777103
-0.026111498 0.2849583 0.93149722
-0.025838494 0.28613666 0.9318468
-0.025279537 0.29402512 0.93527269
-0.025071502 0.2940436 0.93510389
-0.024903774 0.30230415 0.93904889
-0.024322927 0.30142093 0.93811458
-0.024261639 0.31247193 0.94353163
-0.024172001 0.3100414 0.94225192
-0.02474694 0.318232 0.94679785
-0.024484783 0.31894061 0.94692421
-0.02499602 0.32622087 0.95096505
-0.024195485 0.32510322 0.94972688
-0.025989063 0.33302626 0.95518303
-0.024768122 0.33449367 0.95486456
-0.024999186 0.2674019 0.92185593
-0.023230359 0.26575938 0.91952926
-0.026122689 0.27275416 0.92546648
-0.026783302 0.28103951 0.93013257
-0.026894301 0.27981389 0.92962098
-0.026361182 0.28918004 0.9338004
-0.025367826 0.2979449 0.93728834
-0.024532616 0.30571383 0.94041872
-0.025086269 0.31312931 0.94456273
-0.024440169 0.31315753 0.94402385
-0.02501183 0.32256684 0.94917005
-0.024612755 0.33082354 0.95291513
-0.024910778 0.27249593 0.92430151
-0.026174694 0.27662405 0.92742622
-0.024511293 0.27860415 0.92698288
-0.026562586 0.28531587 0.9320603
-0.024290144 0.28660208 0.9307521
-0.02644746 0.29321718 0.93587232
-0.025588736 0.2933625 0.93520945
-0.023147091 0.2946347 0.93374956
-0.025747836 0.2998209 0.93854201
-0.025606856 0.30184656 0.93942404
-0.025734395 0.3100943 0.94361532
-0.025996372 0.30889091 0.94324386
-0.025894389 0.31886813 0.94809467
-0.025330737 0.31668448 0.94653153
-0.026125655 0.32447028 0.9510653
-0.026144564 0.32575995 0.95171976
-0.025375098 0.33294466 0.9546172
-0.025439411 0.3347235 0.9555527
-0.022912472 0.2995308 0.93597215
-0.02456148 0.30736357 0.94125998
-0.02333799 0.30664471 0.93985718
-0.024694309 0.31414896 0.94473201
-0.023352757 0.31599307 0.94449663
-0.025752813 0.32368121 0.95035565
-0.024568632 0.32230037 0.94865888
-0.022525981 0.3214885 0.94650906
-0.025479153 0.32910854 0.95280766
-0.025564119 0.33205187 0.95433724
-0.023516819 0.31632382 0.94480062
-0.025233909 0.32690156 0.95150554
-0.023862645 0.32742983 0.95059347
-0.025845394 0.33410946 0.95559621
-0.025048345 0.33191183 0.95382655
