# .PCD v0.7 - Point Cloud Data file format
VERSION 0.7
FIELDS x y z
SIZE 4 4 4
TYPE F F F
COUNT 1 1 1
WIDTH 484
HEIGHT 1
VIEWPOINT 0 0 0 1 0 0 0
POINTS 484
DATA ascii
-0.23218709 0.25483978 1.087
-0.24411714 0.24688521 1.0983237
-0.23081478 0.24656019 1.0956002
-0.24488775 0.25950003 1.0964546
-0.22501829 0.2608245 1.0943265
-0.24205291 0.2755385 1.0993704
-0.23030497 0.27553928 1.096364
-0.24769516 0.24235645 1.1067854
-0.25218925 0.2605848 1.105
-0.24962378 0.27596864 1.1065787
-0.235535 0.28961074 1.1007676
-0.24817915 0.29109299 1.1095937
-0.23615471 0.29857165 1.1010001
-0.22577175 0.29476377 1.1052999
-0.23007503 0.30582663 1.1088262
-0.26509085 0.23471853 1.1141295
-0.27037188 0.2461303 1.115
-0.26129594 0.24529819 1.1103572
-0.26482058 0.26083505 1.112904
-0.26387867 0.27797112 1.1199412
-0.25774285 0.27437288 1.1130868
-0.25577483 0.28672844 1.1149999
-0.25211442 0.30999285 1.1190001
-0.24559116 0.30488589 1.1115143
-0.24115516 0.31718826 1.1136875
-0.23256619 0.31904826 1.1138841
-0.28475487 0.23296142 1.1281819
-0.27547395 0.23027585 1.1242499
-0.28485686 0.24329935 1.1286668
-0.27713302 0.24567111 1.123633
-0.27542117 0.26098546 1.1267389
-0.27233699 0.27511683 1.1262726
-0.27094933 0.28909105 1.1286668
-0.26252985 0.29108518 1.1222855
-0.2604214 0.30520216 1.124878
-0.25791684 0.31932077 1.1282398
-0.2481333 0.32104665 1.1215599
-0.24594378 0.33558977 1.1247708
-0.23255304 0.34946951 1.1285554
-0.24466847 0.35000354 1.1289189
-0.24288535 0.36260179 1.1299998
-0.29131281 0.22944662 1.138097
-0.27505326 0.22345269 1.132
-0.29188108 0.2469926 1.1398753
-0.28443122 0.26184523 1.1366036
-0.28034386 0.27706078 1.1365883
-0.27838165 0.29025954 1.1374586
-0.26874471 0.30412441 1.13
-0.27163643 0.32113236 1.1398824
-0.26518449 0.32135275 1.1353571
-0.26247397 0.33613983 1.1386454
-0.25591362 0.33054134 1.13
-0.25817296 0.34957075 1.1390388
-0.25151742 0.35391384 1.1340001
-0.23497823 0.35999614 1.13
-0.24955744 0.36724338 1.1352501
-0.24472408 0.38037193 1.1391777
-0.30013123 0.21982853 1.1450001
-0.29551274 0.2246061 1.1435964
-0.29715055 0.24376418 1.149
-0.29547176 0.26122385 1.149
-0.28772715 0.27492622 1.1421741
-0.28521785 0.29009339 1.1450001
-0.28204119 0.30823073 1.149
-0.27639514 0.30454826 1.1408001
-0.27218902 0.33145654 1.1443847
-0.25698793 0.36341655 1.1424003
-0.25429174 0.37943009 1.1450001
-0.24575812 0.39623964 1.1467144
-0.23560229 0.39233583 1.1450002
-0.31599516 0.21709433 1.1589999
-0.30564597 0.21587509 1.1547436
-0.31499025 0.2301013 1.1596669
-0.30714819 0.23239698 1.1532856
-0.30538657 0.24567182 1.1544
-0.30308688 0.26056883 1.15625
-0.30176523 0.27435449 1.1577998
-0.29496315 0.27661884 1.1511818
-0.29208404 0.29098025 1.1531667
-0.28990018 0.30515262 1.1553999
-0.28775513 0.31847405 1.1588821
-0.28010455 0.32030883 1.1525789
-0.27817553 0.3366389 1.15316
-0.27457324 0.35027665 1.1559677
-0.2661216 0.35105756 1.1503334
-0.27206045 0.36483321 1.1581032
-0.26372439 0.36638388 1.1520587
-0.262427 0.38057137 1.1554515
-0.26068118 0.39479002 1.156263
-0.25785995 0.40873164 1.159095
-0.24578223 0.40993622 1.1526359
-0.24516687 0.42466235 1.1576669
-0.3221592 0.21438158 1.1668575
-0.32227567 0.23160405 1.1683046
-0.32060623 0.2462554 1.1697147
-0.31450328 0.24257804 1.161
-0.31062618 0.26306197 1.1650001
-0.30958092 0.27610934 1.1662633
-0.29923615 0.28804022 1.161
-0.29720315 0.30843765 1.1650001
-0.29397678 0.32199419 1.1671538
-0.29254717 0.33490831 1.1699233
-0.2856653 0.33418095 1.1610001
-0.28396899 0.34300196 1.161
-0.28208768 0.35357985 1.1650001
-0.28033185 0.36588371 1.1663333
-0.27150759 0.37817821 1.1606668
-0.27790946 0.38106316 1.1683604
-0.26445314 0.4120307 1.1674
-0.26191396 0.42554632 1.1694618
-0.25485963 0.42320538 1.1610001
-0.24549313 0.43877068 1.1606361
-0.24537258 0.44673371 1.1630001
-0.2446256 0.45573401 1.1698421
-0.33169031 0.20704675 1.1750001
-0.31991532 0.20676589 1.1720591
-0.33271083 0.21531364 1.173889
-0.32975763 0.22932617 1.1762002
-0.31923276 0.26038185 1.1715809
-0.31812307 0.2747297 1.1736958
-0.3144812 0.28770813 1.1746
-0.30643621 0.29107723 1.1701038
-0.30348971 0.30519739 1.1718335
-0.30109563 0.32044792 1.1743335
-0.30007893 0.33420423 1.1762729
-0.29820079 0.34360161 1.177
-0.29106662 0.35025737 1.172097
-0.28842923 0.36405337 1.1734139
-0.2858322 0.37931761 1.1761112
-0.28375509 0.39003426 1.177
-0.27502179 0.39543259 1.1705296
-0.27353224 0.40967134 1.1732858
-0.27121428 0.42233869 1.177
-0.2603032 0.43911874 1.1723335
-0.25750878 0.45459688 1.1753638
-0.25623944 0.46467042 1.177
-0.24629439 0.47008282 1.1762198
-0.34666854 0.20309582 1.1887646
-0.33529866 0.20300286 1.1857997
-0.34277096 0.21562806 1.1841152
-0.34487498 0.22974451 1.1885
-0.33718258 0.2308272 1.1831537
-0.34293535 0.24495381 1.189
-0.33566803 0.24641554 1.1864998
-0.33279619 0.26038179 1.1855333
-0.32613316 0.26711857 1.1810001
-0.33078963 0.27540934 1.1868463
-0.32490456 0.27724585 1.1818
-0.32903722 0.28699553 1.189
-0.32134846 0.2911478 1.1843332
-0.31449968 0.30589443 1.1842363
-0.31641093 0.31919053 1.1885556
-0.30931517 0.3207134 1.1823332
-0.31374934 0.33355415 1.189
-0.30720103 0.33591977 1.1841666
-0.30396479 0.35006568 1.1854444
-0.30167341 0.36521307 1.1868668
-0.29559052 0.36599386 1.1810001
-0.29945421 0.37867332 1.189
-0.29320678 0.38058865 1.1840909
-0.29033661 0.39433879 1.1855515
-0.28370088 0.40644249 1.1831177
-0.28522545 0.422499 1.1885
-0.2778331 0.42566165 1.1837271
-0.2762267 0.43858746 1.1867499
-0.26711857 0.44209161 1.1810001
-0.27123335 0.45392221 1.1882499
-0.26513439 0.45566532 1.1831539
-0.26584852 0.46689349 1.186739
-0.35114455 0.19844839 1.1968968
-0.35389096 0.21587455 1.1974739
-0.35223371 0.23129675 1.1982001
-0.34987977 0.24593844 1.1987097
-0.34063411 0.26280859 1.1943334
-0.33878607 0.27605489 1.1972941
-0.33612531 0.29044738 1.1993811
-0.32497743 0.30598545 1.1941429
-0.32375023 0.32105032 1.1973336
-0.32114184 0.33560154 1.19976
-0.31155106 0.35059661 1.193
-0.30885181 0.36503887 1.1952503
-0.30677822 0.38044512 1.1977085
-0.29597932 0.3995198 1.1930001
-0.2942751 0.41008356 1.1951333
-0.29195225 0.42596766 1.1986818
-0.27715379 0.44449189 1.1930001
-0.27839613 0.45448104 1.1938336
-0.36217025 0.1925388 1.2060002
-0.36251393 0.20097747 1.2033198
-0.36163226 0.21569026 1.2042941
-0.359997 0.23312585 1.2060002
-0.36005574 0.24234748 1.2060002
-0.34907591 0.26074889 1.2029582
-0.3467744 0.27424952 1.2056925
-0.34360948 0.28651747 1.2060001
-0.33360347 0.30548599 1.2026249
-0.33280581 0.31890413 1.2051579
-0.32880786 0.33197963 1.2060001
-0.31960714 0.34980747 1.2020476
-0.31680948 0.36498326 1.2038823
-0.31487554 0.37806156 1.2049092
-0.30533725 0.39481506 1.2009667
-0.30282077 0.40885347 1.2035499
-0.30017561 0.42163843 1.2048
-0.29045722 0.43970767 1.2011249
-0.28799012 0.45361283 1.2038236
-0.3654902 0.18797074 1.2137084
-0.3763161 0.19002326 1.21775
-0.3737095 0.20105156 1.2134744
-0.37349546 0.21640298 1.219
-0.36836463 0.21630381 1.2121818
-0.37296116 0.22976117 1.2190001
-0.36690608 0.23103252 1.2127498
-0.3656745 0.24701712 1.2151874
-0.3626605 0.25976112 1.2172143
-0.35690477 0.2601383 1.2111429
-0.3556866 0.27556539 1.2159616
-0.35406035 0.28608358 1.217
-0.34262764 0.29489315 1.21
-0.3431282 0.30508548 1.2129999
-0.34477159 0.31915763 1.2175715
-0.33880696 0.32133165 1.2109231
-0.3430388 0.33021489 1.2190001
-0.33555329 0.33590105 1.214125
-0.33310765 0.34978607 1.2162353
-0.32777691 0.34156686 1.21
-0.32658553 0.3512606 1.2105001
-0.33088151 0.36354309 1.2186428
-0.32394817 0.36563295 1.2121539
-0.32879004 0.37545469 1.219
-0.32166892 0.38110405 1.2129501
-0.31840798 0.39464447 1.2134001
-0.3166734 0.40806165 1.2169167
-0.30964652 0.41156605 1.2110001
-0.31382886 0.42176318 1.219
-0.30684349 0.42541674 1.2140588
-0.3019886 0.43864527 1.2143333
-0.30206758 0.4536286 1.2175294
-0.29463512 0.4556289 1.2106154
-0.3802698 0.18446408 1.2283938
-0.38387182 0.20105548 1.2237999
-0.38058946 0.21624583 1.2242798
-0.38011259 0.23083597 1.2259629
-0.37161183 0.24938519 1.223
-0.36904761 0.2613593 1.2243334
-0.36584175 0.27626136 1.22808
-0.35569018 0.29457685 1.223
-0.35314482 0.30513281 1.2249285
-0.3521871 0.32123172 1.2285265
-0.35082099 0.33523858 1.2295927
-0.34202009 0.34202009 1.223
-0.33987573 0.35059741 1.2229998
-0.33719343 0.3663412 1.2243155
-0.33580896 0.37989402 1.2268571
-0.32529435 0.39777261 1.223
-0.3230364 0.41182953 1.2252668
-0.32156828 0.42585924 1.2278063
-0.31199953 0.43208182 1.223
-0.30954677 0.44105405 1.2240908
-0.39333227 0.1787874 1.2360001
-0.39488238 0.18644816 1.2335608
-0.39441943 0.20061584 1.2328125
-0.39113769 0.21529678 1.2341053
-0.38932836 0.22934842 1.2345456
-0.38491285 0.24366598 1.233182
-0.37861225 0.25997463 1.2330418
-0.37491179 0.27594659 1.2360001
-0.36574647 0.29021907 1.2306553
-0.36155352 0.30511263 1.2347858
-0.35930848 0.3183499 1.2360001
-0.35865834 0.32940224 1.2360001
-0.34884927 0.35022229 1.23256
-0.34822032 0.3646245 1.2338752
-0.34484294 0.37951687 1.2360001
-0.34348851 0.38899803 1.2360001
-0.33461329 0.39449716 1.2313704
-0.33145082 0.40884304 1.2340001
-0.3301762 0.42429113 1.2360001
-0.32994401 0.43504936 1.2360001
-0.3197796 0.43938854 1.2319585
-0.40443286 0.17724241 1.2447188
-0.40858302 0.1850584 1.2457778
-0.40678433 0.20034425 1.2468573
-0.40482345 0.21318124 1.2491666
-0.39994532 0.21712931 1.2458
-0.39779326 0.23133954 1.2471764
-0.39487317 0.24601254 1.2472142
-0.3908143 0.26077902 1.2474545
-0.38414395 0.26639125 1.2436666
-0.38282844 0.27538407 1.2455332
-0.37854183 0.29130709 1.2455556
-0.37478447 0.30542845 1.2474287
-0.36911809 0.30658013 1.2431538
-0.36736089 0.32066277 1.2450435
-0.36426774 0.33476096 1.2463751
-0.36184436 0.34974626 1.2474117
-0.35575747 0.35249364 1.2410001
-0.36108419 0.36217675 1.248125
-0.35610086 0.36513829 1.2432858
-0.35196024 0.38077173 1.245
-0.34726453 0.39546314 1.2456428
-0.34286976 0.40482837 1.2446667
-0.33881858 0.41044477 1.2432859
-0.33715886 0.42396474 1.245625
-0.33353689 0.43924344 1.246375
-0.32529506 0.44388086 1.2410001
-0.41603905 0.1859366 1.2550001
-0.41404894 0.20252387 1.2566668
-0.41092759 0.2170867 1.2570002
-0.40935928 0.23097739 1.2575163
-0.40489087 0.24606043 1.2574466
-0.39846671 0.26149297 1.2569232
-0.3945573 0.27625564 1.2585219
-0.38902083 0.27067083 1.25
-0.39295924 0.2902211 1.2595203
-0.38617608 0.29045722 1.2550001
-0.38249728 0.30575129 1.2569414
-0.38088304 0.31943583 1.2593046
-0.37367916 0.31560001 1.25
-0.37056929 0.33798322 1.2558
-0.36977726 0.35118043 1.2567501
-0.36785999 0.36582047 1.2589232
-0.36373776 0.3794781 1.2590667
-0.35833749 0.37477499 1.25
-0.35757041 0.38617605 1.2550001
-0.35498169 0.39583692 1.2564546
-0.35202149 0.41053006 1.2575386
-0.34299582 0.41751251 1.25
-0.34844488 0.42475161 1.2595556
-0.34137914 0.4346298 1.2555716
-0.44213453 0.15845925 1.2640001
-0.44909179 0.16340716 1.268
-0.42206344 0.17341967 1.2617779
-0.42173359 0.18648371 1.2605627
-0.42112675 0.20068733 1.2635833
-0.41864267 0.21541592 1.2640001
-0.4177562 0.22937807 1.2640001
-0.41611394 0.25011301 1.268
-0.40600488 0.25807634 1.2634444
-0.40116248 0.29258838 1.2690001
-0.39106181 0.30279893 1.2609231
-0.38572982 0.3257027 1.268
-0.37693581 0.33492914 1.2608824
-0.37564501 0.34853908 1.262125
-0.37343195 0.36345899 1.2640001
-0.37159646 0.3760429 1.268
-0.3609702 0.39348981 1.2615
-0.35791844 0.40667513 1.2640001
-0.35682788 0.41685501 1.268
-0.35571632 0.42463627 1.268
-0.43843415 0.1596058 1.2718462
-0.42610839 0.16738197 1.2712001
-0.44930157 0.17229828 1.2726429
-0.43891776 0.17102925 1.2708209
-0.45138124 0.18337844 1.2764375
-0.43496168 0.18563786 1.2728617
-0.43614793 0.2002279 1.278
-0.42742535 0.20097589 1.2703334
-0.43358701 0.21399257 1.2780001
-0.42639047 0.21663919 1.2714092
-0.43358704 0.22519638 1.2780001
-0.42530572 0.2308653 1.2739524
-0.4228448 0.24412943 1.2740715
-0.41846928 0.25995326 1.2770001
-0.41175696 0.26201296 1.271125
-0.40920734 0.27503625 1.2744584
-0.40574375 0.28743699 1.2757777
-0.40445718 0.30138221 1.2780001
-0.39655876 0.30872458 1.2713332
-0.39522311 0.32005307 1.2737693
-0.39306214 0.3339912 1.277375
-0.38521934 0.33621189 1.2704999
-0.39017233 0.35095903 1.278
-0.38593364 0.35494852 1.2744474
-0.38074848 0.36520624 1.273
-0.37866363 0.37987745 1.2755001
-0.37626091 0.39493394 1.278
-0.36819103 0.39557731 1.270647
-0.37353471 0.40714613 1.2780001
-0.36526275 0.41025975 1.2732
-0.36378005 0.42521045 1.2761251
-0.45867291 0.17439902 1.2855
-0.45417163 0.18593442 1.2855
-0.44428152 0.19233453 1.2830001
-0.4500536 0.20128737 1.289875
-0.44177905 0.20099151 1.2854003
-0.4411642 0.21620104 1.2873335
-0.43805948 0.23006146 1.2878336
-0.42976865 0.24561886 1.284
-0.42627293 0.26006496 1.2879333
-0.42320085 0.27553773 1.2897
-0.41503766 0.28231558 1.2830001
-0.41315809 0.29035226 1.2851429
-0.40958947 0.31972939 1.2892001
-0.40154052 0.32730612 1.2830001
-0.39909288 0.33764651 1.2844286
-0.39758992 0.34978095 1.2855266
-0.39489725 0.36498007 1.2872919
-0.39236394 0.37909588 1.2898
-0.38534394 0.38309437 1.2830001
-0.38354456 0.39555517 1.2846669
-0.38139623 0.41017145 1.2875001
-0.37515825 0.4242892 1.2864687
-0.4632552 0.18009187 1.2920001
-0.45443568 0.20580363 1.2970001
-0.45231318 0.2162644 1.2970001
-0.44940162 0.21564074 1.2917143
-0.44953188 0.22617824 1.2900001
-0.44503611 0.23445697 1.2970001
-0.44376105 0.2468446 1.2975556
-0.4362278 0.24557227 1.2902223
-0.4309369 0.26606658 1.2970001
-0.43036839 0.27402583 1.2970001
-0.42408091 0.29093507 1.2948929
-0.41213632 0.30615002 1.29
-0.41501838 0.32291842 1.2970001
-0.41295952 0.3362563 1.2985626
-0.40522909 0.33428031 1.2901819
-0.40435725 0.34772459 1.2920001
-0.40137395 0.371811 1.2970001
-0.39948109 0.38037369 1.2975
-0.39101711 0.39403754 1.2919999
-0.38850009 0.40662253 1.2920001
-0.45200345 0.22971955 1.302
-0.45106757 0.2556684 1.30425
-0.43915534 0.25995877 1.3014739
-0.43565384 0.2755698 1.3043078
-0.43441701 0.28961426 1.3057501
-0.43425947 0.29905468 1.307
-0.42499143 0.30603284 1.3018076
-0.42286408 0.32121632 1.3026818
-0.42111936 0.33491179 1.3053335
-0.41821823 0.34794226 1.307
-0.41154104 0.35057163 1.3011668
-0.40807936 0.36484441 1.3014445
-0.40598089 0.38012478 1.3039231
-0.40408173 0.39378268 1.3057501
-0.39807057 0.395504 1.3001251
-0.3950789 0.41005349 1.302
-0.45149249 0.26463139 1.3120002
-0.44435546 0.2672267 1.312
-0.45290494 0.27438307 1.31725
-0.44395992 0.27715805 1.314
-0.44267806 0.29113719 1.3140455
-0.4409768 0.30571362 1.3162858
-0.43805173 0.31991893 1.3193334
-0.43132001 0.32090208 1.312
-0.4278999 0.33692992 1.3135002
-0.42502689 0.3500874 1.3150557
-0.42263466 0.36357751 1.3170002
-0.41521737 0.36805972 1.312
-0.4139547 0.38017207 1.3136668
-0.4116393 0.39548105 1.3161176
-0.4091447 0.40998152 1.3176819
-0.45445234 0.28579441 1.3243752
-0.45578951 0.29221755 1.3280001
-0.4492476 0.3062593 1.32075
-0.44511756 0.32132289 1.3280001
-0.43503496 0.33376569 1.3212858
-0.4322896 0.34768599 1.322
-0.4309918 0.36672717 1.3280001
-0.42030227 0.37862271 1.3207501
-0.41838214 0.38824937 1.322
-0.45628923 0.31083971 1.3380001
-0.45424718 0.32156581 1.3342
-0.45272619 0.33441126 1.3362691
-0.44228396 0.336169 1.330143
-0.45042431 0.34602907 1.3380002
-0.44135526 0.35044941 1.3334
-0.44023365 0.3644343 1.3362499
-0.43529555 0.37981173 1.3371668
-0.42777559 0.38075244 1.3306924
-0.4334161 0.39353481 1.3380002
-0.42491186 0.39527473 1.3325454
-0.45917171 0.340258 1.3430001
-0.45463827 0.35322464 1.345091
-0.45477659 0.36436 1.3481004
-0.44527879 0.36710191 1.3430001
-0.44322786 0.38072997 1.3451431
-0.44054797 0.39492229 1.3458003
-0.46411961 0.35847601 1.3540001
-0.45148009 0.37874156 1.3516924
-0.44829285 0.3932949 1.3540001
-0.45887658 0.38459072 1.3666668
