# .PCD v0.7 - Point Cloud Data file format
VERSION 0.7
FIELDS x y z
SIZE 4 4 4
TYPE F F F
COUNT 1 1 1
WIDTH 353
HEIGHT 1
VIEWPOINT 0 0 0 1 0 0 0
POINTS 353
DATA ascii
-0.21374543 0.24331675 1.1074418
-0.2168514 0.23736867 1.1142499
-0.20331652 0.23752844 1.1149999
-0.20320775 0.24568504 1.1132611
-0.23098673 0.23219761 1.1258708
-0.21624723 0.23410699 1.125222
-0.20145012 0.23512104 1.1255482
-0.19183676 0.23648433 1.1268001
-0.19578843 0.24629141 1.1201428
-0.18718602 0.24449679 1.1277308
-0.24527548 0.22644404 1.1398711
-0.21609572 0.2280786 1.1397576
-0.18584991 0.23206928 1.1383877
-0.26301372 0.2209086 1.1436667
-0.24812357 0.22204037 1.1443334
-0.2309456 0.22693735 1.140414
-0.22764753 0.22462566 1.149
-0.20086509 0.22969876 1.1408892
-0.17195313 0.23288068 1.1415119
-0.16361669 0.23488531 1.1450001
-0.27597535 0.21616036 1.1547297
-0.2609452 0.21845989 1.1548604
-0.24563847 0.21912764 1.1548178
-0.23186994 0.22093724 1.1557142
-0.2152428 0.22329015 1.1534166
-0.20063287 0.2252402 1.1538888
-0.19972159 0.22160643 1.1591541
-0.18594365 0.22359601 1.1553593
-0.17075895 0.22629955 1.1536152
-0.15614635 0.23066448 1.1551937
-0.27479622 0.21108493 1.1693079
-0.17317131 0.22221291 1.1606002
-0.15529738 0.22209387 1.1603335
-0.14629807 0.22575995 1.161
-0.28933111 0.20722757 1.1727144
-0.27723402 0.20695826 1.1736153
-0.26161152 0.21284565 1.171737
-0.24593347 0.21418044 1.1711541
-0.2303589 0.21547809 1.1722637
-0.2157127 0.21673436 1.1717372
-0.20118162 0.21774496 1.1708574
-0.18646309 0.21751976 1.1702418
-0.17092539 0.2191119 1.1712668
-0.1569123 0.21907403 1.1705002
-0.14328924 0.22039576 1.1726
-0.13310693 0.22700407 1.177
-0.14005065 0.23127283 1.1722891
-0.3061581 0.20537563 1.1857617
-0.29001671 0.20365719 1.1861427
-0.27733141 0.2050174 1.1864119
-0.26534683 0.20811892 1.187
-0.24495383 0.20742896 1.189
-0.23036082 0.20742896 1.189
-0.21993726 0.20742898 1.189
-0.26013353 0.21025391 1.1826842
-0.24579424 0.21037935 1.1841111
-0.23214944 0.21009889 1.1835001
-0.21620183 0.21078844 1.1839565
-0.20147003 0.21280327 1.1851816
-0.18540739 0.21372528 1.1849999
-0.17174156 0.2138734 1.1849998
-0.15701807 0.21556939 1.1852351
-0.14119606 0.21705107 1.184652
-0.12862213 0.22070457 1.1849998
-0.12846914 0.23034845 1.1842499
-0.30491644 0.1994119 1.1990516
-0.27558559 0.20139815 1.1994244
-0.26063374 0.20299634 1.1998426
-0.24609703 0.20343795 1.1983001
-0.20952159 0.20952159 1.1950001
-0.19994508 0.20995203 1.1969999
-0.18727368 0.2104485 1.1950626
-0.16918325 0.21001951 1.1944284
-0.15637217 0.21175133 1.197154
-0.14143904 0.21237378 1.1988928
-0.12611233 0.21416064 1.1971627
-0.3351514 0.19347858 1.2060002
-0.32050472 0.19572738 1.2036251
-0.3034336 0.19347858 1.2060001
-0.2939623 0.1957936 1.2034829
-0.23138393 0.20508088 1.2002085
-0.21594326 0.20715286 1.2022221
-0.20090806 0.20623811 1.2038422
-0.18605125 0.20573018 1.2013477
-0.17265682 0.2067567 1.2022353
-0.15774319 0.20785733 1.2060002
-0.11205383 0.21659359 1.2011731
-0.10255422 0.2167383 1.2060001
-0.33566448 0.19052133 1.2141366
-0.3164351 0.19232622 1.2117953
-0.30641049 0.19258696 1.2117648
-0.2902934 0.19258219 1.2181666
-0.28938767 0.19478656 1.2125001
-0.27575645 0.19491726 1.2157106
-0.26048484 0.19658566 1.2127998
-0.24650909 0.19830327 1.2150834
-0.23019819 0.20126091 1.2141366
-0.21605332 0.20126081 1.2143714
-0.20178492 0.20052989 1.2134135
-0.18587886 0.20125343 1.2135
-0.17157887 0.20243068 1.2137501
-0.1568222 0.20487559 1.2147391
-0.14182104 0.20827478 1.2129108
-0.12613153 0.20780939 1.2134286
-0.11240835 0.20654473 1.2168125
-0.096477933 0.20670499 1.2177501
-0.08698865 0.20710567 1.2190001
-0.10970845 0.21006098 1.2107272
-0.096610226 0.21578313 1.2127708
-0.088087849 0.21510532 1.219
-0.35019189 0.18255125 1.2288461
-0.33575156 0.18509361 1.2291936
-0.3201192 0.18538256 1.2295001
-0.30553731 0.18651754 1.2289331
-0.29155919 0.1883633 1.2288572
-0.27468824 0.19406156 1.223
-0.26053569 0.19406155 1.2230002
-0.24366586 0.19530018 1.226
-0.231112 0.19615643 1.2284229
-0.21604495 0.19521028 1.2287778
-0.20024213 0.195539 1.2292727
-0.1708487 0.19791357 1.2293999
-0.15565199 0.19825709 1.2279485
-0.14199817 0.20198999 1.2286829
-0.12742215 0.20308703 1.22888
-0.11040951 0.20144448 1.2297096
-0.098778605 0.20175026 1.2271364
-0.086845227 0.2047832 1.223
-0.083735943 0.21658878 1.2252398
-0.36543059 0.17851649 1.2360001
-0.35649124 0.1787874 1.2360001
-0.27627376 0.19101596 1.2310456
-0.26110527 0.19091901 1.2316818
-0.24794036 0.19204651 1.2333848
-0.23475204 0.19255982 1.2340001
-0.21178631 0.19230326 1.2346667
-0.20737024 0.19332954 1.2320001
-0.1869711 0.19709973 1.2309567
-0.3798002 0.17505576 1.2461249
-0.36532527 0.17534973 1.2447
-0.3490372 0.17820343 1.2440667
-0.33549696 0.17738946 1.2484615
-0.32043701 0.17716777 1.2475001
-0.30721554 0.17745838 1.2479999
-0.33518115 0.18081528 1.2431818
-0.3209433 0.18059859 1.2410001
-0.30533653 0.18118782 1.2422501
-0.29054007 0.18322982 1.2447501
-0.27573082 0.1847306 1.2446665
-0.26024929 0.18547554 1.2454399
-0.24593839 0.18611489 1.2447503
-0.2312891 0.18834342 1.2441249
-0.21668603 0.18908903 1.24508
-0.20127548 0.19001493 1.24428
-0.18459626 0.19298291 1.2433751
-0.17140496 0.19263726 1.2437601
-0.15883788 0.19226238 1.2460999
-0.1495887 0.19435218 1.2455001
-0.13899545 0.19613773 1.2471334
-0.12625912 0.19689563 1.2456554
-0.11365863 0.19655567 1.2459999
-0.10117873 0.19691774 1.2410001
-0.39439398 0.16916206 1.2585808
-0.38087639 0.1685687 1.2575717
-0.36468932 0.17111619 1.2593335
-0.3501431 0.17106619 1.2584691
-0.33543697 0.17175062 1.2594376
-0.32069793 0.1728037 1.2597393
-0.30489194 0.17446555 1.258864
-0.29512841 0.17807211 1.2574615
-0.28962016 0.18014263 1.2572223
-0.27447718 0.18033981 1.2574
-0.26116514 0.1807213 1.2570001
-0.24579367 0.18076263 1.2572858
-0.23114872 0.18309747 1.259286
-0.18633543 0.18553415 1.2594802
-0.17068684 0.18626583 1.2590002
-0.13043065 0.18854913 1.2577858
-0.1453452 0.19489351 1.256
-0.12362992 0.19037613 1.25
-0.11584054 0.19160426 1.2525001
-0.3958796 0.16510409 1.2696667
-0.27575779 0.17705661 1.2616923
-0.26075828 0.17730698 1.2625
-0.24598353 0.17707008 1.2610832
-0.23713483 0.17840517 1.2640001
-0.22927025 0.17980346 1.268
-0.21571261 0.17937359 1.2691112
-0.2157906 0.18333621 1.2607602
-0.20079669 0.1830941 1.2651289
-0.15611984 0.18980844 1.2600418
-0.14110795 0.19127591 1.2603531
-0.41169864 0.16217065 1.2757777
-0.3951619 0.1628301 1.2729999
-0.37807763 0.16415098 1.2756786
-0.36483911 0.16434959 1.2753685
-0.35095143 0.1639996 1.2769583
-0.33543867 0.16635121 1.2735556
-0.31962144 0.16720757 1.2734349
-0.30560085 0.16940181 1.2734168
-0.29150495 0.17286135 1.2747999
-0.27593037 0.17330639 1.2761819
-0.26211497 0.17402805 1.2749999
-0.24547268 0.17409527 1.2743158
-0.23172943 0.17642483 1.2753334
-0.21706881 0.17678773 1.2763332
-0.20135164 0.17690389 1.2771666
-0.18809746 0.17802425 1.2771667
-0.18572575 0.18082237 1.2716666
-0.17076637 0.18223552 1.2739091
-0.15539451 0.18360138 1.272643
-0.14206393 0.18515733 1.2715185
-0.42185026 0.1540813 1.2878948
-0.40952161 0.15658081 1.2893825
-0.37920636 0.15950523 1.2897309
-0.36563513 0.1596029 1.2887273
-0.3854208 0.16566238 1.2855
-0.3472226 0.16307983 1.2859334
-0.3332271 0.16361433 1.2855
-0.32122514 0.16210614 1.2888825
-0.31269926 0.16424043 1.2861668
-0.30468595 0.16523677 1.2876154
-0.29059398 0.16819663 1.2876842
-0.27627739 0.16788112 1.2862942
-0.26032281 0.16972956 1.2866844
-0.24685158 0.17095675 1.2868183
-0.23081809 0.17210121 1.2855241
-0.21581954 0.17365015 1.2857649
-0.20115916 0.17391519 1.2876667
-0.1867478 0.1759086 1.2879333
-0.17393656 0.17769301 1.2852942
-0.15692484 0.17734626 1.2854688
-0.14791821 0.17727603 1.2880001
-0.14659415 0.18033706 1.2830001
-0.42021438 0.14837758 1.2920001
-0.41961434 0.14733799 1.2995
-0.40939423 0.14553647 1.2982002
-0.43321097 0.15349995 1.2970001
-0.42259863 0.1519839 1.2970001
-0.41047025 0.15122588 1.2970001
-0.39685348 0.15900446 1.2903478
-0.37961438 0.15217893 1.2996191
-0.38963276 0.16423473 1.2920001
-0.29904065 0.16487032 1.2970001
-0.28994435 0.16515458 1.2970001
-0.27244905 0.16580254 1.2976251
-0.26011869 0.16632588 1.2995
-0.17495155 0.16536485 1.2974763
-0.16259624 0.17169254 1.2970001
-0.39639279 0.14656162 1.3035626
-0.37986261 0.14702368 1.305125
-0.39417997 0.15351 1.3008713
-0.36471045 0.15451749 1.3010477
-0.35048446 0.15640064 1.3022635
-0.33592901 0.15717098 1.3017728
-0.32079571 0.15821351 1.3017057
-0.3059881 0.16006342 1.3027692
-0.29119238 0.16181776 1.3045
-0.27656534 0.16299239 1.3042223
-0.26218647 0.16372451 1.306
-0.25093091 0.16384988 1.307
-0.24595504 0.16774979 1.3017372
-0.23111297 0.16861314 1.3016154
-0.21514422 0.16926518 1.3022275
-0.20159188 0.16931981 1.3012859
-0.18309395 0.16218598 1.304143
-0.18595621 0.17020577 1.3013337
-0.38913241 0.14506049 1.3132501
-0.37908548 0.14322934 1.3168076
-0.36639154 0.1463442 1.3184286
-0.34991282 0.14813071 1.3193078
-0.37381068 0.15067445 1.312
-0.36304238 0.15170945 1.3130002
-0.34944406 0.15191285 1.3135387
-0.33444104 0.15189792 1.3163182
-0.31985083 0.15252064 1.3159132
-0.30590826 0.15352921 1.3168002
-0.2910867 0.15641341 1.3170003
-0.27556604 0.15789273 1.3159065
-0.26144537 0.15911189 1.3182069
-0.25649163 0.16447669 1.312
-0.24379626 0.16506213 1.3130001
-0.23106128 0.16582769 1.3143077
-0.21766435 0.16545242 1.3136668
-0.20002793 0.16531318 1.3120002
-0.19051214 0.16321123 1.3130715
-0.32334799 0.14718707 1.322
-0.22003631 0.14785509 1.3280001
-0.33180079 0.15018351 1.3280001
-0.32015866 0.15018351 1.3280001
-0.30408847 0.1502966 1.3290001
-0.29084283 0.15147565 1.3299232
-0.21661848 0.15533257 1.3251817
-0.24546385 0.16111168 1.3200558
-0.23017351 0.16067506 1.3212861
-0.2029489 0.16011587 1.3203334
-0.3638263 0.14031573 1.3342123
-0.34994933 0.14388625 1.3334546
-0.33576077 0.14545567 1.3332273
-0.31974787 0.1455375 1.3332381
-0.3065497 0.14691523 1.3349999
-0.29441798 0.14896846 1.3379999
-0.27363947 0.14863332 1.3380002
-0.26626647 0.14896846 1.3380001
-0.22553915 0.14841178 1.3330001
-0.2758587 0.15169826 1.3303078
-0.25960779 0.15358417 1.3325238
-0.24540411 0.15499125 1.3329998
-0.23177841 0.15473092 1.3332174
-0.20191088 0.15705374 1.3323333
-0.35458148 0.13740163 1.344896
-0.33592582 0.13985887 1.3497503
-0.31969053 0.1397264 1.3495001
-0.30544993 0.14209329 1.3466821
-0.28727669 0.14952514 1.3430001
-0.27539927 0.14531152 1.3489414
-0.25941238 0.14991759 1.3430001
-0.23343547 0.14846301 1.3455
-0.2472463 0.15023157 1.3430002
-0.35504168 0.13254848 1.35
-0.34431171 0.13462707 1.3590001
-0.29166296 0.14491974 1.3507695
-0.26126316 0.14616558 1.3500627
-0.24566223 0.14641571 1.3520001
-0.34587076 0.13199916 1.3614001
-0.33443642 0.13404121 1.3649666
-0.32205954 0.13575155 1.3623334
-0.31912902 0.13211146 1.3674999
-0.30495945 0.13681693 1.3634665
-0.28988689 0.13824977 1.3630499
-0.24634673 0.13986579 1.3626521
-0.27621052 0.1403884 1.3646469
-0.25942826 0.14017667 1.3667147
-0.34620619 0.12907338 1.376
-0.33361343 0.12701021 1.3781874
-0.32036203 0.12753835 1.3790001
-0.30642086 0.13213588 1.3792144
-0.29124928 0.13534814 1.3785
-0.28990033 0.13273767 1.3790003
-0.27477601 0.13605627 1.3783334
-0.26310602 0.13413933 1.3785001
-0.25221699 0.1333147 1.3700001
-0.33195069 0.12524147 1.3870001
-0.31638673 0.12572785 1.3870001
-0.30598164 0.12674707 1.3887225
-0.27480981 0.12599191 1.389793
-0.26482621 0.12784266 1.3888751
-0.30145848 0.13438511 1.381
-0.27724496 0.13196376 1.381
-0.27609345 0.11849859 1.3935001
-0.29031506 0.12721802 1.39168
-0.30278665 0.12431484 1.404
-0.29033914 0.12169303 1.4053335
