# .PCD v0.7 - Point Cloud Data file format
VERSION 0.7
FIELDS x y z
SIZE 4 4 4
TYPE F F F
COUNT 1 1 1
WIDTH 269
HEIGHT 1
VIEWPOINT 0 0 0 1 0 0 0
POINTS 269
DATA ascii
-0.21455866 0.27593461 1.1095455
-0.20862716 0.27634549 1.1170001
-0.19811817 0.26188958 1.122457
-0.18954153 0.2609283 1.1280605
-0.20098455 0.2756905 1.1249074
-0.19131209 0.27397788 1.12925
-0.20445701 0.28958428 1.1267058
-0.21093617 0.29087132 1.1215883
-0.21377225 0.30589885 1.124657
-0.20714267 0.30013174 1.1284001
-0.21883734 0.31842646 1.1276968
-0.18281896 0.25994122 1.1363707
-0.18439183 0.27655458 1.1399211
-0.19767827 0.29166639 1.1364585
-0.20976354 0.31116581 1.1340001
-0.21286356 0.32143989 1.1348698
-0.21530266 0.33557162 1.1391397
-0.17408139 0.26082766 1.1434337
-0.17651819 0.27376458 1.1446365
-0.18665971 0.29060918 1.1422195
-0.20048775 0.30591947 1.1406223
-0.18929623 0.30162531 1.1440003
-0.20300443 0.31979662 1.1430002
-0.19440697 0.31125259 1.149
-0.20496169 0.33202109 1.1442002
-0.2169437 0.3493464 1.1418159
-0.22119822 0.36443523 1.1434445
-0.1593864 0.25983292 1.1593527
-0.16735448 0.26131067 1.1523334
-0.17051545 0.27680236 1.1545651
-0.17328221 0.28972444 1.1571107
-0.18028873 0.29212007 1.1503334
-0.18437493 0.30657777 1.1543715
-0.18888384 0.3193725 1.1578485
-0.1958569 0.32208139 1.1513158
-0.19913763 0.33652365 1.1542094
-0.2111875 0.35284957 1.1518571
-0.20190059 0.35000107 1.1583334
-0.21379228 0.36585939 1.1537616
-0.21607922 0.37945685 1.1554151
-0.2193127 0.3945902 1.1586969
-0.15068397 0.24867938 1.1680769
-0.15202008 0.26143596 1.1680772
-0.16374257 0.27559447 1.1630001
-0.16694415 0.29281759 1.1672858
-0.17695355 0.30170798 1.1610001
-0.18188132 0.32134426 1.1673639
-0.18662637 0.33483016 1.1651516
-0.19134828 0.34300196 1.161
-0.19588855 0.35480541 1.1650001
-0.20596732 0.36306447 1.1600589
-0.19898832 0.36623564 1.1686474
-0.21018696 0.38544491 1.1650001
-0.21170415 0.39597419 1.1691484
-0.2212719 0.40692043 1.1610001
-0.22468966 0.41567588 1.1650001
-0.2258763 0.42705733 1.1652355
-0.14639241 0.26046461 1.1743335
-0.15553656 0.27578259 1.170804
-0.14693353 0.27426216 1.177
-0.15834942 0.29015931 1.1741002
-0.17042424 0.30621558 1.1709234
-0.16059256 0.30262455 1.1764287
-0.17209195 0.31982064 1.1735582
-0.17549762 0.33285207 1.1762002
-0.18851785 0.35037565 1.1718574
-0.19025423 0.36376369 1.1741202
-0.19226557 0.37524462 1.177
-0.20179982 0.38021433 1.1733204
-0.20266919 0.39417654 1.1754212
-0.20554458 0.40768039 1.1763847
-0.21474409 0.41037065 1.1703917
-0.21834539 0.42302993 1.1734446
-0.22217056 0.43455008 1.1760001
-0.13477667 0.24615282 1.185045
-0.13237929 0.25641972 1.189
-0.13965353 0.26028556 1.1844444
-0.14265434 0.2759544 1.1865711
-0.14672871 0.28930679 1.1858572
-0.15119675 0.29179925 1.181923
-0.15484798 0.30525276 1.1849998
-0.16071802 0.31993377 1.1862725
-0.16534635 0.32240337 1.1825
-0.16589679 0.33416951 1.1865
-0.1791144 0.34269863 1.1810001
-0.1815031 0.3516089 1.1823334
-0.17373775 0.35053656 1.1876664
-0.18338287 0.36588204 1.1855516
-0.17641886 0.36143714 1.189
-0.18723239 0.37982878 1.1859522
-0.19567989 0.38514772 1.1810001
-0.19362551 0.39509493 1.1839161
-0.19637856 0.40663385 1.1872857
-0.21281447 0.42736766 1.1830951
-0.20530732 0.42300931 1.1869998
-0.21610923 0.43932036 1.1863953
-0.20701203 0.43507972 1.189
-0.2246695 0.44519764 1.1810001
-0.22579935 0.45969263 1.1826001
-0.21986544 0.45252714 1.1874284
-0.23071547 0.4694528 1.1848822
-0.22202197 0.46384871 1.189
-0.12471712 0.2466011 1.1943717
-0.13491637 0.26460341 1.1930001
-0.12617074 0.26119617 1.1975745
-0.13662237 0.27601978 1.1939414
-0.12787461 0.27470726 1.1996748
-0.14037293 0.29049334 1.1974
-0.15112419 0.31017256 1.1935713
-0.15380134 0.32165208 1.1961292
-0.15513425 0.33539432 1.1977144
-0.16420054 0.34095144 1.1930001
-0.16708939 0.35122213 1.1947896
-0.17453226 0.36746269 1.1951668
-0.17171808 0.37954247 1.1997441
-0.18006282 0.38156578 1.193
-0.18409194 0.39551312 1.19669
-0.19573861 0.41503283 1.194
-0.19828852 0.42523977 1.1949121
-0.21091579 0.44588637 1.1930001
-0.20126803 0.44006279 1.1987319
-0.21335247 0.4557232 1.194783
-0.11409227 0.24533056 1.2007271
-0.11718704 0.25594682 1.2042857
-0.13128445 0.28551158 1.202875
-0.14461139 0.30456346 1.2008889
-0.14784282 0.31938383 1.2038182
-0.15974703 0.34994569 1.2037306
-0.16178925 0.36392057 1.2052943
-0.1638753 0.37638453 1.2060001
-0.17514674 0.39298111 1.2048235
-0.18704721 0.40976837 1.2001202
-0.18720031 0.42358986 1.2034445
-0.1911526 0.43537965 1.2060002
-0.20383602 0.45150805 1.2030908
-0.20828022 0.46413717 1.2060001
-0.10472131 0.24481684 1.2149925
-0.11152431 0.26059461 1.2130002
-0.12058233 0.27619663 1.2108001
-0.1151968 0.27400634 1.2157273
-0.11862089 0.28533134 1.2190001
-0.13542454 0.29524672 1.21
-0.12655482 0.2904335 1.2138066
-0.13383248 0.30528617 1.2135277
-0.13051893 0.31587175 1.2176363
-0.14087708 0.32039332 1.212643
-0.14322731 0.33347538 1.2155929
-0.14862822 0.34262738 1.2145001
-0.15296942 0.35216409 1.2113913
-0.15535562 0.36537042 1.2127334
-0.15962248 0.37974527 1.2142611
-0.16526744 0.38548261 1.21
-0.16556188 0.39432544 1.2149719
-0.17582184 0.40569788 1.2125771
-0.17953475 0.41104707 1.21
-0.1810869 0.42672336 1.2103335
-0.17517821 0.42230275 1.2156875
-0.1865744 0.43944368 1.2139602
-0.17846566 0.43494329 1.2190001
-0.1941203 0.44552201 1.21
-0.19527924 0.45499182 1.2152047
-0.091622368 0.2345299 1.2238001
-0.084852293 0.23126023 1.2279142
-0.095988207 0.24675716 1.2261026
-0.10567728 0.26550189 1.2247144
-0.096532322 0.26046917 1.2292352
-0.10814469 0.27655083 1.2257499
-0.12201218 0.29527378 1.223
-0.11194324 0.2910746 1.2289584
-0.12267464 0.3056058 1.2262398
-0.12570059 0.32137191 1.2285554
-0.13738531 0.33750278 1.2265
-0.14474703 0.35217956 1.2256365
-0.15020037 0.36733201 1.2247778
-0.15279935 0.38070077 1.2257599
-0.15513761 0.39517394 1.2264593
-0.16404098 0.40206125 1.223
-0.16556682 0.41189751 1.2233077
-0.1694162 0.42613548 1.2261033
-0.18168414 0.44415241 1.2245002
-0.18467534 0.45500162 1.2264706
-0.085339151 0.24478625 1.2309585
-0.085541874 0.2652941 1.2351429
-0.098046347 0.27415606 1.2329286
-0.1029382 0.28605986 1.2360001
-0.11418889 0.30408233 1.2335001
-0.11738566 0.31387123 1.2360001
-0.12721288 0.33519158 1.2328097
-0.13010259 0.34834898 1.2344445
-0.14151552 0.36494529 1.2310232
-0.13327788 0.36299258 1.2360001
-0.14358522 0.3783592 1.2339033
-0.14775991 0.39222366 1.2354287
-0.15782557 0.4091469 1.2303332
-0.16082773 0.42335489 1.234737
-0.17132093 0.4394975 1.2316053
-0.162534 0.43234044 1.2360001
-0.1752608 0.45263016 1.2354547
-0.092507519 0.27994412 1.2414446
-0.085023686 0.27796626 1.2434
-0.086311646 0.28928334 1.2483332
-0.0959341 0.2913779 1.2448286
-0.10809229 0.30843055 1.2431818
-0.099028938 0.30476108 1.2474062
-0.11120615 0.32099661 1.2446666
-0.11230406 0.33486894 1.2457368
-0.11633877 0.34817618 1.2480556
-0.12315011 0.35266575 1.2431765
-0.12474257 0.36519739 1.245317
-0.12831701 0.37864786 1.2472857
-0.13664471 0.38380858 1.2420001
-0.13955233 0.3953332 1.2453332
-0.14230181 0.40879595 1.247129
-0.15023226 0.41172671 1.2418001
-0.15210207 0.42522076 1.2425454
-0.15710637 0.43920374 1.2450938
-0.088762499 0.29916251 1.25
-0.092206798 0.30809775 1.2564287
-0.087674998 0.30659401 1.2580001
-0.10275544 0.31922469 1.25
-0.10546362 0.33745217 1.2550001
-0.1094541 0.35120064 1.2593335
-0.11549468 0.36369514 1.2548269
-0.13186528 0.3897514 1.25
-0.1227703 0.38281402 1.256
-0.13635254 0.41175017 1.2554445
-0.14662251 0.42364913 1.25
-0.14706084 0.43460751 1.25
-0.1510388 0.44342571 1.2576001
-0.094721965 0.32100043 1.2602571
-0.086601138 0.32287282 1.2652857
-0.094653182 0.33560634 1.264941
-0.086864643 0.33078438 1.268
-0.10236249 0.34790903 1.2632858
-0.10746168 0.36631954 1.2686249
-0.11571231 0.37835264 1.2611111
-0.11856741 0.38894543 1.2640001
-0.12465504 0.3974154 1.2641668
-0.13079347 0.40898928 1.2622501
-0.13352685 0.41941836 1.2640001
-0.1232411 0.41064343 1.2691537
-0.14034531 0.42547569 1.2606001
-0.13450521 0.42797112 1.268
-0.14296077 0.43824336 1.2606364
-0.13720633 0.43987602 1.2698749
-0.096910991 0.35107535 1.2706923
-0.097884513 0.36539543 1.27325
-0.09943416 0.37870756 1.276913
-0.10912781 0.38106915 1.2708261
-0.11469872 0.39460728 1.2731923
-0.11643558 0.40861258 1.2746665
-0.11689297 0.41864863 1.2780001
-0.12690541 0.42438346 1.2731614
-0.13142827 0.43795076 1.277
-0.093355358 0.35654998 1.2830001
-0.091845736 0.36625817 1.2855
-0.095604889 0.3809734 1.2830001
-0.10745426 0.39652157 1.2838826
-0.099510506 0.39539811 1.2872729
-0.10922708 0.40974143 1.2865187
-0.11223763 0.42396715 1.2870349
-0.12203682 0.43022197 1.2830001
-0.12543428 0.44033739 1.2850692
-0.098540835 0.40536404 1.2919999
-0.098947123 0.41256005 1.2973127
-0.10645237 0.42500046 1.2977144
-0.11685908 0.43671906 1.2900001
-0.10039205 0.42354381 1.3006959
-0.097765863 0.43132001 1.312
