# .PCD v0.7 - Point Cloud Data file format
VERSION 0.7
FIELDS x y z
SIZE 4 4 4
TYPE F F F
COUNT 1 1 1
WIDTH 1377
HEIGHT 1
VIEWPOINT 0 0 0 1 0 0 0
POINTS 1377
DATA ascii
-0.11389796 0.088951573 0.91010731
-0.1085626 0.091059193 0.90546304
-0.11258471 0.089932352 0.90798831
-0.10705113 0.091706954 0.9040404
-0.10581244 0.092605531 0.90209764
-0.099761873 0.094358161 0.89817744
-0.10373057 0.09376093 0.89958209
-0.097882174 0.09531793 0.89608234
-0.093022637 0.095772013 0.89494795
-0.087470055 0.097661853 0.89075583
-0.085612938 0.097412713 0.89121503
-0.0779953 0.098756038 0.88810283
-0.081957288 0.098517187 0.88875031
-0.076016635 0.09966968 0.88610166
-0.069549538 0.10155315 0.88189
-0.073817588 0.10066549 0.88391894
-0.066935755 0.10209671 0.8806476
-0.060703188 0.10338303 0.87770575
-0.064916022 0.10287485 0.87893105
-0.059212651 0.10451696 0.87525684
-0.062845424 0.10361311 0.87729704
-0.057167873 0.10513558 0.87387639
-0.049391318 0.10704468 0.8695634
-0.054860312 0.10580914 0.87237042
-0.047801897 0.10757048 0.86839545
-0.053357579 0.10705581 0.86968303
-0.046432827 0.10805114 0.86733073
-0.13426383 0.082088634 0.92533809
-0.12720306 0.084032945 0.92097658
-0.13223392 0.082934953 0.92347729
-0.12587899 0.084881529 0.91913635
-0.11985914 0.086899109 0.91465765
-0.12533937 0.085794911 0.91718769
-0.11812808 0.087832257 0.91262418
-0.12424568 0.086917073 0.91477799
-0.11630716 0.088852942 0.9104026
-0.12213977 0.088100217 0.91220295
-0.11553563 0.090086281 0.90776968
-0.10939675 0.092077553 0.90334219
-0.11390275 0.090616688 0.90659046
-0.10696606 0.092355669 0.90266711
-0.099763341 0.09388379 0.89917946
-0.10372371 0.092405505 0.90244478
-0.097607896 0.094080493 0.89868623
-0.10247704 0.093035474 0.90106922
-0.095982827 0.094545342 0.89764571
-0.087352991 0.096008755 0.8942433
-0.094520904 0.095236756 0.89613259
-0.086857282 0.096692339 0.8927815
-0.080610275 0.098990723 0.88770145
-0.085161425 0.097633854 0.89073169
-0.07803341 0.099669315 0.88617516
-0.083170697 0.098337047 0.88917458
-0.076867089 0.09958902 0.88630259
-0.069693819 0.10150797 0.88199067
-0.074538164 0.10074814 0.88377035
-0.067790523 0.102167 0.88053
-0.060987663 0.10374723 0.87694681
-0.073580615 0.10181686 0.88147849
-0.06665431 0.10274047 0.87927759
-0.058609463 0.10465226 0.87494934
-0.062636912 0.10369679 0.87711281
-0.057377506 0.10503304 0.87410051
-0.049891904 0.10673931 0.87022644
-0.05478134 0.10625012 0.87143618
-0.046806257 0.10761189 0.86827201
-0.053730018 0.10716103 0.86947423
-0.046573758 0.10849527 0.86639774
-0.15197937 0.077511571 0.93564498
-0.14558005 0.078831851 0.93262541
-0.13914502 0.08082246 0.92818862
-0.14383665 0.079806075 0.93050486
-0.13607967 0.081807166 0.92599815
-0.14242017 0.080891266 0.9281615
-0.13569617 0.082158178 0.92524284
-0.13012472 0.084868327 0.91931742
-0.13545385 0.083401382 0.92260832
-0.12900132 0.085943632 0.91700572
-0.13268621 0.084671885 0.91982478
-0.12652762 0.086351849 0.91605419
-0.12052569 0.088506609 0.91128635
-0.12427348 0.086731233 0.91517144
-0.11749092 0.088898897 0.91034824
-0.12175206 0.087488204 0.91348165
-0.11570775 0.088732861 0.91063464
-0.10847258 0.090730347 0.90615445
-0.11297245 0.089846089 0.90818459
-0.10638604 0.091684803 0.90406317
-0.10033131 0.093505874 0.89999813
-0.10555026 0.092210561 0.90292251
-0.098103143 0.094472915 0.89787519
-0.10308237 0.093010224 0.90114433
-0.096296512 0.094809458 0.89709914
-0.089575358 0.096426427 0.89344126
-0.095543705 0.095357366 0.89591467
-0.087180384 0.097196974 0.89172733
-0.081250757 0.098721892 0.88829237
-0.092547573 0.096363194 0.89368206
-0.086388856 0.097702831 0.8906303
-0.079033196 0.09952759 0.88651055
-0.084513076 0.098662868 0.88853478
-0.076945893 0.1003784 0.88463819
-0.069458574 0.10237986 0.88014054
-0.0761666 0.10046048 0.88443673
-0.067132562 0.10267228 0.879439
-0.06082391 0.1042712 0.87583405
-0.073070191 0.10217832 0.88069654
-0.066959344 0.10343343 0.87782502
-0.059563681 0.10509013 0.8740589
-0.073151343 0.10324463 0.87844718
-0.066957079 0.10408725 0.87644392
-0.05789528 0.10576515 0.87257296
-0.051201891 0.10760738 0.86844021
-0.055276465 0.10611075 0.87174839
-0.049215239 0.10795034 0.86764413
-0.05460199 0.10710444 0.86962521
-0.047447953 0.10846706 0.86648893
-0.16514204 0.072736681 0.94620562
-0.15827419 0.074385568 0.9424749
-0.16397777 0.073953085 0.94359422
-0.15692328 0.075975731 0.93906742
-0.16162336 0.074817859 0.94168264
-0.15499367 0.076556019 0.93777221
-0.1490667 0.078091085 0.93431592
-0.15292339 0.077414989 0.9358831
-0.14620268 0.07967224 0.9308728
-0.13922197 0.080863863 0.92810404
-0.15139244 0.078292653 0.93397409
-0.14584476 0.079922274 0.93033183
-0.1396459 0.081802502 0.92613667
-0.14476779 0.080413237 0.92925596
-0.13702609 0.082722001 0.92410004
-0.13463898 0.082940914 0.92355144
-0.12842163 0.084782787 0.91943663
-0.13206826 0.083641745 0.92197841
-0.12616014 0.085382976 0.91808742
-0.11992408 0.087677717 0.91301548
-0.12378935 0.086015426 0.91666597
-0.11779664 0.087992378 0.912274
-0.12182562 0.086962409 0.91459489
-0.11610845 0.088722959 0.91067004
-0.10988385 0.09089151 0.90586495
-0.11459485 0.089617744 0.90872532
-0.10725212 0.091414884 0.90466458
-0.11454241 0.09055531 0.90674317
-0.10682777 0.092056967 0.90329301
-0.09959963 0.094122149 0.89867008
-0.10480905 0.092993185 0.90124261
-0.097345144 0.094494216 0.89780295
-0.091289334 0.096528962 0.89328659
-0.09552677 0.09490037 0.89687937
-0.089043967 0.096715748 0.892811
-0.086813003 0.097458452 0.8911618
-0.07871978 0.099396288 0.88677663
-0.085542344 0.09838675 0.88915509
-0.078799114 0.099823922 0.88587624
-0.084158532 0.099521518 0.88670832
-0.077717438 0.10069276 0.88400203
-0.068803005 0.1030573 0.87868601
-0.07468453 0.10152212 0.88214082
-0.067774981 0.10224573 0.88036311
-0.060472243 0.10421839 0.87593293
-0.064927191 0.10333252 0.87796479
-0.059105515 0.10519886 0.87381268
-0.052129861 0.10712627 0.86948991
-0.057893574 0.10558705 0.87294894
-0.049553286 0.10769401 0.86819768
-0.055519212 0.10658789 0.87074935
-0.048595302 0.10800634 0.86750346
-0.18097594 0.068516336 0.9556911
-0.17516923 0.069946021 0.95246178
-0.16997913 0.071444526 0.94910944
-0.17300966 0.070939928 0.95028454
-0.16862324 0.072529301 0.94676918
-0.17107756 0.071948327 0.94808489
-0.165785 0.073327363 0.9449811
-0.15957372 0.074902438 0.94143009
-0.16239023 0.074295625 0.94281346
-0.15800905 0.075584173 0.93993372
-0.15532409 0.077030003 0.9367829
-0.15273932 0.077628009 0.93542653
-0.14670785 0.079072118 0.93215865
-0.14447372 0.079164319 0.93188322
-0.13899405 0.080917738 0.92798197
-0.13591683 0.081985064 0.92561656
-0.13002163 0.083518915 0.92216402
-0.13336626 0.082598068 0.92422962
-0.12838188 0.084109038 0.92085826
-0.12570907 0.085195027 0.91846812
-0.12061362 0.086815283 0.91486192
-0.1244691 0.086411439 0.91585416
-0.11921572 0.088098511 0.91210109
-0.12316235 0.087578043 0.91334277
-0.11643564 0.089172356 0.90973252
-0.11082523 0.091002449 0.90566456
-0.11394676 0.089847721 0.9082163
-0.10950676 0.091687776 0.90416938
-0.10515533 0.092260912 0.90280187
-0.098901168 0.09315744 0.90068257
-0.10327094 0.09319891 0.9007526
-0.097101025 0.094045237 0.89874244
-0.09097784 0.095821336 0.89476991
-0.095384054 0.095186323 0.89627022
-0.08991307 0.097010851 0.89221907
-0.093403295 0.097034886 0.89229417
-0.087859794 0.097962052 0.89013582
-0.085504286 0.098906249 0.88805652
-0.078482524 0.099864617 0.8857789
-0.071169659 0.10115552 0.88278836
-0.075717628 0.10022856 0.88491035
-0.068967365 0.10191087 0.88111341
-0.06762705 0.10282159 0.87914133
-0.061330292 0.10467283 0.87500405
-0.06510213 0.10378638 0.87701243
-0.0594601 0.10490966 0.87443632
-0.054596499 0.1055273 0.87295622
-0.051164385 0.10705675 0.86960196
-0.053530585 0.10709572 0.86960495
-0.048589893 0.10810454 0.8672958
-0.046450719 0.10862677 0.86611563
-0.19512755 0.06346862 0.96686351
-0.18692195 0.065763645 0.96171987
-0.19208723 0.06421715 0.96517283
-0.18563914 0.06652882 0.96005744
-0.17937973 0.068528175 0.95560855
-0.1840266 0.06750837 0.95793021
-0.17749327 0.069081083 0.95437264
-0.18302274 0.06774845 0.95738685
-0.17590226 0.069945022 0.95249039
-0.16946247 0.072126679 0.94764996
-0.17349298 0.070588425 0.95104438
-0.16739538 0.07265307 0.94646347
-0.17208917 0.071473494 0.94912428
-0.16548212 0.07367602 0.94423372
-0.16007245 0.075213522 0.94079107
-0.16301453 0.073681071 0.944134
-0.15666606 0.075654678 0.93973625
-0.15475425 0.075692892 0.93958664
-0.14811498 0.077861056 0.93476748
-0.15234625 0.076457106 0.93788552
-0.14556453 0.078344524 0.93365419
-0.13967645 0.080612108 0.92865223
-0.14424883 0.078749672 0.93275094
-0.13760673 0.081081532 0.92758602
-0.14319244 0.079940081 0.93019843
-0.1363077 0.081937306 0.92573148
-0.12948875 0.084004395 0.92111939
-0.13399908 0.08268436 0.92407018
-0.12903878 0.084028661 0.9210518
-0.12680528 0.084887333 0.91915756
-0.12068027 0.087665118 0.91306937
-0.12430785 0.085998774 0.91671991
-0.118115 0.088075444 0.91211009
-0.1231824 0.087039307 0.91448146
-0.11693022 0.08875227 0.91063768
-0.10960043 0.090656415 0.90635127
-0.11583865 0.089734882 0.90852284
-0.10759965 0.091940284 0.90356731
-0.11433025 0.090735808 0.90635425
-0.1076991 0.092472181 0.90244746
-0.099726565 0.094143763 0.89862901
-0.10498608 0.092871815 0.90150541
-0.098146096 0.094580144 0.89765024
-0.096731745 0.09492588 0.89686894
-0.089259811 0.097164139 0.89187169
-0.093901925 0.096089214 0.89430964
-0.087594867 0.097818926 0.8904286
-0.079692654 0.099501863 0.88658869
-0.086166032 0.097951487 0.89009702
-0.078275777 0.099895358 0.88570648
-0.071492091 0.10158889 0.88188463
-0.077199601 0.10053885 0.8843084
-0.06940145 0.10272005 0.87941992
-0.074590571 0.10111812 0.88299078
-0.068122059 0.10245311 0.87993759
-0.059388917 0.10432728 0.87566388
-0.065401249 0.10331464 0.87801969
-0.058796313 0.10499559 0.87423086
-0.051239762 0.10701545 0.86969185
-0.057374883 0.10587709 0.87231767
-0.049278837 0.10774925 0.8680712
-0.20081279 0.062521331 0.9690696
-0.19824538 0.062642947 0.96872002
-0.20105594 0.063350566 0.96732682
-0.19595487 0.06368959 0.96642679
-0.2017183 0.062841281 0.96842641
-0.19549802 0.06349837 0.96681416
-0.1888037 0.065324411 0.96271551
-0.19430405 0.064022437 0.96566409
-0.18675685 0.066067658 0.96107185
-0.1800402 0.067952819 0.95684761
-0.19344608 0.065646924 0.96220189
-0.18580842 0.066130981 0.96090388
-0.17784952 0.068742275 0.95510107
-0.17618948 0.069581285 0.95326906
-0.17056769 0.071389958 0.94924581
-0.17345169 0.069527753 0.95328331
-0.16706581 0.071070656 0.94979393
-0.16438863 0.07172773 0.94830948
-0.15919828 0.074121736 0.94306552
-0.1627401 0.072640114 0.94632286
-0.15622438 0.074878417 0.94135994
-0.15035231 0.076619312 0.93747097
-0.15575005 0.074980207 0.9411279
-0.14846639 0.07731472 0.93593413
-0.15352821 0.075885177 0.93913633
-0.14743821 0.077778451 0.93491751
-0.1403106 0.080100983 0.92975461
-0.1457397 0.078528285 0.93327242
-0.13880944 0.080873817 0.9280681
-0.14397848 0.0793503 0.9314726
-0.1374229 0.081436835 0.9268288
-0.13110471 0.083279416 0.92270899
-0.13573824 0.082141578 0.92527956
-0.12906776 0.084544301 0.91996378
-0.13381436 0.083411679 0.92252737
-0.12793376 0.085189119 0.91856092
-0.1219588 0.087245971 0.91400075
-0.1266644 0.085534066 0.91778648
-0.12055311 0.088525504 0.91124743
-0.12315743 0.086415365 0.91579849
-0.11799057 0.089012831 0.91012561
-0.11603041 0.089255482 0.90954232
-0.10886618 0.091760948 0.90399182
-0.11303384 0.089925408 0.90801919
-0.10724196 0.091949448 0.90353501
-0.10034373 0.09383367 0.8993063
-0.10451083 0.091711536 0.90393907
-0.098450631 0.094404057 0.8980332
-0.096601628 0.094478503 0.89780921
-0.089745566 0.096863255 0.89252478
-0.094387226 0.095221594 0.89615977
-0.088890873 0.096390232 0.89349306
-0.081623994 0.098965794 0.8877908
-0.085419804 0.097243026 0.89156651
-0.079094492 0.098875493 0.88789016
-0.072346114 0.10119832 0.88274038
-0.076576151 0.099583581 0.88630366
-0.070044503 0.10193828 0.88109446
-0.20342457 0.062146049 0.96995652
-0.20222035 0.06210253 0.97000498
-0.19762725 0.063293353 0.9673239
-0.19547653 0.064324327 0.96506882
-0.18819584 0.065244205 0.96286309
-0.1940639 0.063740134 0.96625161
-0.18484476 0.065284602 0.9626568
-0.17949261 0.067226052 0.95836288
-0.18240796 0.065580003 0.96194494
-0.17746609 0.067777678 0.95712465
-0.17094372 0.069017634 0.95427036
-0.17403251 0.0683835 0.95572114
-0.1695753 0.06996236 0.95222545
-0.17216784 0.068801284 0.95477146
-0.16614346 0.071067929 0.94976646
-0.16456063 0.071935833 0.94787616
-0.15997761 0.073808469 0.94375545
-0.16196431 0.072503611 0.94658309
-0.15649578 0.074699685 0.94174731
-0.15443948 0.075860329 0.93922156
-0.15025242 0.077417977 0.93578047
-0.15349801 0.07607004 0.9387446
-0.14718619 0.078135908 0.93415332
-0.14497985 0.079023674 0.93219858
-0.14008085 0.080780968 0.9283101
-0.14392143 0.080271453 0.9295249
-0.13853252 0.082036331 0.92560267
-0.13678917 0.083224505 0.92302996
-0.13052009 0.084450692 0.92021388
-0.13482207 0.083258674 0.92288685
-0.12790124 0.085135326 0.91867334
-0.12192323 0.086804852 0.91493124
-0.12493344 0.085517123 0.91775978
-0.12020613 0.087301582 0.91382009
-0.11627956 0.088256314 0.9116618
-0.1117568 0.090166152 0.90746462
-0.11510374 0.088957086 0.91013926
-0.10848989 0.090672672 0.90627688
-0.10553598 0.09145236 0.90452337
-0.10059735 0.093159735 0.90073884
-0.098365493 0.093868628 0.8991611
-0.095788054 0.094513625 0.89770573
-0.089885786 0.09630926 0.89369994
-0.093794413 0.095261753 0.89605355
-0.087249413 0.096576393 0.8930406
-0.081469804 0.098095909 0.88962251
-0.19858639 0.062313311 0.9694286
-0.2016591 0.061147101 0.97200274
-0.19635458 0.062282965 0.96941215
-0.18876439 0.063386001 0.9668085
-0.1951351 0.062308796 0.96931362
-0.18710826 0.063964993 0.96552575
-0.18130903 0.06560719 0.9618479
-0.18405598 0.064952902 0.96332902
-0.17863929 0.066418141 0.96003854
-0.18262385 0.065892436 0.96129286
-0.17661442 0.067331508 0.95803642
-0.1708014 0.06871777 0.95489848
-0.17417869 0.067875929 0.95679849
-0.16889417 0.069944717 0.95223814
-0.1727573 0.069472529 0.95337486
-0.16657709 0.071085997 0.94974393
-0.16080393 0.07255166 0.94643986
-0.16517869 0.071942493 0.94788432
-0.15980315 0.073491931 0.94441766
-0.1570465 0.074580759 0.94201839
-0.15575051 0.07588324 0.93922049
-0.14985199 0.07721138 0.93620241
-0.15397823 0.076873153 0.9370656
-0.14892212 0.078395993 0.93366665
-0.14644417 0.079429179 0.93139505
-0.14106803 0.081048861 0.92777991
-0.14375015 0.080274999 0.92951119
-0.13824905 0.082213625 0.92521793
-0.13617119 0.082836762 0.92382675
-0.12951101 0.084142998 0.92082745
-0.13456571 0.0831642 0.92307723
-0.12699868 0.084841639 0.91926104
-0.12101968 0.086181656 0.91621488
-0.12504314 0.085583553 0.9176234
-0.11965979 0.087172359 0.91407329
-0.11672305 0.088299811 0.91158599
-0.11092869 0.089561686 0.90871155
-0.11428048 0.088861883 0.91031051
-0.10820673 0.090133846 0.90740478
-0.10267553 0.09182547 0.9036321
-0.10598131 0.091270342 0.90492398
-0.10076768 0.092711747 0.90169132
-0.20295325 0.059642479 0.97522753
-0.20056036 0.060693748 0.97292072
-0.20189413 0.059847765 0.97475576
-0.19650052 0.061781399 0.97047687
-0.19592103 0.061994188 0.97000653
-0.18909596 0.063208573 0.96719521
-0.19471256 0.062027834 0.96989191
-0.18712577 0.064158171 0.96511835
-0.18062024 0.065927714 0.96114594
-0.19213079 0.063047096 0.96764582
-0.18606915 0.064760797 0.96380746
-0.17787382 0.066840641 0.95911866
-0.18445367 0.06551566 0.96215463
-0.17755719 0.067780897 0.95712113
-0.17115454 0.069362372 0.95354974
-0.17734355 0.068181083 0.95626819
-0.16989791 0.070169374 0.95179987
-0.17469268 0.06934087 0.95372283
-0.1666531 0.071425021 0.94903052
-0.16082835 0.073109269 0.94526291
-0.1736469 0.070258811 0.95174623
-0.16674978 0.072373003 0.94703168
-0.1605632 0.074272886 0.94279557
-0.16574684 0.072961599 0.9457522
-0.15905055 0.074976787 0.94125414
-0.15734969 0.075659335 0.93975109
-0.15004371 0.077780053 0.93500817
-0.15596195 0.07659173 0.93773168
-0.14872414 0.0785335 0.9333691
-0.15454681 0.077189341 0.93641829
-0.14770266 0.078979477 0.93239021
-0.14083971 0.08095926 0.92796093
-0.14482425 0.079169154 0.93188572
-0.13797523 0.081336215 0.92706132
-0.13153373 0.083238572 0.92281067
-0.1364031 0.0818398 0.92594099
-0.12935394 0.083894491 0.92134666
-0.13473088 0.082528695 0.92442548
-0.12896255 0.08430241 0.92047089
-0.12154393 0.086129442 0.91634417
-0.12726393 0.085178822 0.91855848
-0.11907812 0.087043092 0.9143253
-0.11249118 0.088647217 0.91069943
-0.12427527 0.085817739 0.91710109
-0.11843302 0.087646544 0.91302752
-0.11088656 0.089370415 0.90911394
-0.20341657 0.061480567 0.97136182
-0.19942832 0.061143652 0.97192961
-0.20336576 0.061130993 0.97209835
-0.19696639 0.06202618 0.96997672
-0.19100122 0.062947854 0.96781474
-0.19607185 0.062078245 0.96983439
-0.18917744 0.063827053 0.96589178
-0.192341 0.063146949 0.96744245
-0.18621309 0.064945385 0.96342266
-0.18479052 0.066052735 0.96103239
-0.179903 0.067594677 0.95759916
-0.18363276 0.066985756 0.9590199
-0.17819059 0.068388715 0.9558602
-0.17188241 0.070391461 0.95140243
-0.17498679 0.069322884 0.95377141
-0.16992638 0.071025282 0.94999295
-0.17310995 0.070634246 0.95093387
-0.16725816 0.072349548 0.94709963
-0.16640423 0.073074535 0.94553751
-0.16057396 0.074769899 0.94174612
-0.164364 0.0739775 0.94355667
-0.15883216 0.075338304 0.94048274
-0.15271361 0.077178121 0.93637586
-0.15514722 0.076273963 0.93837339
-0.14863507 0.077943474 0.93461215
-0.15381604 0.077295601 0.93616754
-0.14774761 0.078407794 0.93359935
-0.14136654 0.079982042 0.930044
-0.14604338 0.079499781 0.93123138
-0.13940029 0.0809322 0.92796612
-0.13740875 0.081776038 0.92611194
-0.13240184 0.083563522 0.92215574
-0.13500544 0.082423568 0.92465746
-0.20360298 0.060094483 0.97429627
-0.20362821 0.060425818 0.97359729
-0.19843791 0.0611642 0.97185045
-0.19640188 0.061520815 0.97102386
-0.19044511 0.062957078 0.96777511
-0.19579937 0.06202127 0.96994495
-0.19023748 0.063687101 0.96622562
-0.194372 0.063213661 0.9673748
-0.18812931 0.064575598 0.96427292
-0.18245813 0.066915751 0.9591254
-0.1849359 0.065625861 0.96193933
-0.17947069 0.067737415 0.95728207
-0.18391103 0.066666678 0.95970386
-0.17791043 0.068659708 0.95527768
-0.17634454 0.06968753 0.95305014
-0.17085567 0.071495786 0.94903278
-0.17326047 0.07001707 0.95224285
-0.16854322 0.07183291 0.94823724
-0.16313314 0.073927864 0.94361705
-0.16610239 0.072758451 0.94619423
-0.16011578 0.074703857 0.94186914
-0.16444214 0.073559627 0.94444203
-0.15815856 0.075609416 0.9398858
-0.15255441 0.077255636 0.93620634
-0.15582582 0.076192379 0.93857026
-0.15028727 0.07790713 0.93474853
-0.14772615 0.07837306 0.93367207
-0.14084318 0.080400661 0.92914093
-0.20042817 0.059844151 0.97471052
-0.20373806 0.059729308 0.9750725
-0.20020892 0.060955092 0.97235608
-0.20386556 0.061057374 0.97227192
-0.19818242 0.062611505 0.96878421
-0.19158435 0.063396931 0.96688712
-0.20313755 0.062513933 0.96916902
-0.19782659 0.062312216 0.96940351
-0.1900997 0.063898563 0.96577412
-0.18817307 0.065053001 0.96326625
-0.18271504 0.066615209 0.95976949
-0.18553029 0.065825701 0.96153867
-0.18056412 0.067578763 0.95765662
-0.18396348 0.066580251 0.9598884
-0.17779517 0.06829603 0.95604169
-0.17204645 0.070142537 0.9519341
-0.17582321 0.069309652 0.95382965
-0.17096171 0.07118623 0.94969046
-0.16889378 0.071998596 0.94789994
-0.16318989 0.073528081 0.94446355
-0.16544692 0.072859257 0.94595766
-0.16003668 0.074468508 0.94236338
-0.15674108 0.075181231 0.9407391
-0.1996484 0.061522961 0.97113633
-0.19777344 0.06214352 0.96975791
-0.19169374 0.063299671 0.96709651
-0.1968496 0.062729672 0.96848655
-0.19004512 0.064175919 0.96518624
-0.19502783 0.062965989 0.96792161
-0.18841676 0.064954504 0.96348298
-0.18274778 0.066545755 0.95991737
-0.185817 0.066030115 0.96111733
-0.18031353 0.067887232 0.95699608
-0.18419525 0.066547558 0.95996571
-0.1778312 0.068813369 0.95495027
-0.17201263 0.070441037 0.95130235
-0.17613263 0.069823295 0.95275581
-0.16985078 0.071157575 0.94971097
-0.19927916 0.061485142 0.97120291
-0.19772212 0.062007129 0.9700442
-0.19198941 0.063255072 0.96720141
-0.19824369 0.062560201 0.96889478
-0.1909513 0.064159051 0.9652546
-0.1965832 0.063037813 0.96782607
-0.1894023 0.06458433 0.96430039
-0.18233888 0.066523403 0.95994979
-0.18717182 0.065688431 0.96188784
-0.18187541 0.067140996 0.95862865
-0.19739583 0.062319517 0.96937251
-0.02918189 0.11550889 0.85169631
-0.029261652 0.11573603 0.8516928
-0.028716233 0.11534395 0.85226512
-0.029707074 0.1159519 0.8511762
-0.029457295 0.11571331 0.85141039
-0.029486774 0.11564919 0.85133928
-0.030099783 0.11605826 0.85068113
-0.030730305 0.11638112 0.84995806
-0.031574667 0.11681174 0.84898877
-0.030440349 0.11658846 0.8504585
-0.030136172 0.11635199 0.85076922
-0.029725976 0.11604507 0.8511939
-0.031257022 0.11694343 0.84949213
-0.029787917 0.11605304 0.85111165
-0.031581204 0.11708177 0.84910733
-0.030576199 0.11644751 0.85020334
-0.031652391 0.11701836 0.84897846
-0.031271927 0.11673044 0.8493709
-0.031974547 0.11716422 0.84859991
-0.031653479 0.11691358 0.84892756
-0.031354599 0.11673556 0.84925854
-0.030238405 0.11661847 0.85075307
-0.030044671 0.11644198 0.8509388
-0.031146374 0.11701982 0.84968174
-0.031273253 0.11701417 0.84950298
-0.031387091 0.11711675 0.84939331
-0.031350803 0.11701777 0.84939694
-0.032556213 0.11772455 0.84805685
-0.031653464 0.11716406 0.84904575
-0.031343117 0.11691186 0.84935766
-0.032183595 0.11742869 0.84843463
-0.031688195 0.11707229 0.84895426
-0.031010639 0.11667722 0.84970856
-0.0296282 0.11582346 0.85122514
-0.02922745 0.11553401 0.85164499
-0.028397026 0.11511942 0.85260236
-0.027840046 0.11473641 0.85319501
-0.028653789 0.11523307 0.85229939
-0.030826375 0.11718018 0.85020179
-0.030373037 0.11686053 0.85068053
-0.029850908 0.11648033 0.85122591
-0.031194709 0.11728089 0.84973788
-0.030275784 0.11669452 0.85073715
-0.03207992 0.11774786 0.84872925
-0.031161398 0.11715834 0.84972626
-0.030479349 0.11671082 0.8504622
-0.031891152 0.1175407 0.84889358
-0.030991979 0.11696548 0.8498705
-0.033078823 0.11816389 0.84753859
-0.032205366 0.11760254 0.84848642
-0.032361407 0.11767569 0.84830433
-0.032038391 0.11740647 0.84862572
-0.030770991 0.11668012 0.85004264
-0.029778838 0.11605246 0.85112405
-0.028894115 0.11548781 0.85208601
-0.02881752 0.11549643 0.8521964
-0.028131664 0.11502871 0.85292792
-0.028512277 0.1152925 0.85252398
-0.028479502 0.11519621 0.8525241
-0.02767952 0.11466822 0.85338563
-0.028629676 0.11526088 0.852346
-0.02775413 0.11468842 0.85329151
-0.029139727 0.11551185 0.85175633
-0.027889136 0.11474985 0.85313314
-0.02977524 0.11677342 0.85146952
-0.029325888 0.11646257 0.85194659
-0.029665098 0.116621 0.85155046
-0.030794024 0.11720585 0.85025889
-0.03120853 0.1173586 0.84975541
-0.031422213 0.11752656 0.84953803
-0.031383611 0.11743294 0.84954739
-0.031945974 0.11771919 0.84890169
-0.031689964 0.11750174 0.84915453
-0.032486908 0.11798286 0.84827495
-0.032083422 0.11768866 0.84869647
-0.030791812 0.1169297 0.85013157
-0.030877493 0.1169026 0.8499999
-0.029902577 0.11635353 0.85109442
-0.028597154 0.11555078 0.8525281
-0.029799726 0.11625009 0.8511883
-0.028901204 0.11568832 0.85217083
-0.028639171 0.11546215 0.85242784
-0.029216789 0.11582919 0.85179907
-0.028285399 0.11523733 0.85281301
-0.027430598 0.11469528 0.85374403
-0.02841986 0.11528308 0.85264784
-0.028167201 0.11507202 0.85289901
-0.028489932 0.11529354 0.85255545
-0.028110698 0.11501465 0.85295045
-0.027390452 0.11452469 0.85371917
-0.028018923 0.11493487 0.85304022
-0.027397722 0.11450764 0.85370111
-0.028879358 0.1153781 0.85205472
-0.027435578 0.11450996 0.85364962
-0.030558236 0.11734721 0.85065305
-0.03014452 0.11703161 0.85107851
-0.030766517 0.11743258 0.85040414
-0.030618168 0.11726899 0.85053295
-0.030675322 0.11722047 0.85043067
-0.031457476 0.11771356 0.84957731
-0.031093732 0.11742283 0.84994519
-0.032328352 0.11816779 0.84858245
-0.031578422 0.11765964 0.84938401
-0.032891981 0.11844333 0.84792995
-0.032695785 0.11825077 0.84811139
-0.032678738 0.11816069 0.84809268
-0.032692112 0.11822727 0.84810549
-0.032090791 0.11781231 0.84874463
-0.031150319 0.11721134 0.84976685
-0.030940756 0.11715078 0.85002911
-0.030572049 0.11687183 0.85040945
-0.031194165 0.11727074 0.84973389
-0.030496627 0.11680982 0.85048491
-0.028951265 0.1158646 0.85218447
-0.030739896 0.11692148 0.85019982
-0.029545289 0.11617769 0.85150748
-0.029837724 0.11625274 0.85113692
-0.029986326 0.11639269 0.85099655
-0.029651418 0.11611857 0.85133219
-0.030046213 0.11639869 0.85091627
-0.029125918 0.11582041 0.85192114
-0.02864141 0.11546527 0.85242623
-0.029579118 0.11603364 0.85139245
-0.028683539 0.11546288 0.85236657
-0.027951233 0.11497919 0.85315514
-0.030439824 0.11648418 0.85041004
-0.028913829 0.11557175 0.85209823
-0.028096803 0.11502618 0.85297525
-0.028507624 0.11530031 0.85253412
-0.028071981 0.11499655 0.85299575
-0.027229048 0.1144444 0.8539055
-0.028491717 0.11518826 0.85250336
-0.02707433 0.11432049 0.85406178
-0.029137751 0.11552209 0.85176378
-0.027993854 0.1148122 0.85301715
-0.031939246 0.11832368 0.84919643
-0.031061046 0.11776686 0.85015297
-0.030932993 0.11761317 0.85025823
-0.031521626 0.11799175 0.84961963
-0.030913509 0.11756232 0.85026127
-0.032230347 0.1183544 0.84880674
-0.031170554 0.11769556 0.84996724
-0.032183304 0.11816716 0.84878355
-0.03249611 0.1184057 0.84846187
-0.032989778 0.11858633 0.84786165
-0.032912992 0.11859351 0.84797168
-0.032533966 0.11830849 0.84836334
-0.032754049 0.11834785 0.8480764
-0.032127127 0.11805981 0.84881097
-0.032071277 0.11794049 0.84883207
-0.032050729 0.11798552 0.84888196
-0.031218566 0.11745811 0.84978861
-0.030800447 0.11713788 0.85021782
-0.031468242 0.11755648 0.8494882
-0.031110883 0.1172774 0.84985274
-0.030931316 0.11710098 0.85001874
-0.031398587 0.11742118 0.84952116
-0.031203307 0.117218 0.84969634
-0.031390756 0.11738446 0.8495146
-0.030914173 0.11703862 0.85001314
-0.030254107 0.1165949 0.85072023
-0.03125795 0.1172137 0.84961838
-0.030240204 0.11655591 0.85072106
-0.029769916 0.11622472 0.85121775
-0.03128833 0.11719055 0.84956539
-0.030521672 0.11669696 0.85039675
-0.029862139 0.11624512 0.85109931
-0.030916926 0.11688487 0.84993678
-0.030054193 0.11632098 0.85086846
-0.029546835 0.11594934 0.85139757
-0.02985758 0.11620495 0.85108662
-0.029014111 0.11563206 0.85198748
-0.028487049 0.11526532 0.85254622
-0.030661538 0.11659672 0.85015535
-0.029816464 0.11606154 0.85107607
-0.028950566 0.11549819 0.85201246
-0.031906091 0.11726749 0.84874386
-0.030560207 0.11646172 0.85023218
-0.029098369 0.11555573 0.85183448
-0.028705163 0.11525598 0.85223889
-0.028517276 0.11520854 0.85247737
-0.028356325 0.11504211 0.85262227
-0.029397903 0.11567351 0.85147417
-0.028287049 0.11498152 0.85268992
-0.031400368 0.11820714 0.8498897
-0.030722082 0.11775166 0.85061646
-0.032352358 0.11870404 0.84880233
-0.032030225 0.11843777 0.84912395
-0.032460928 0.11873144 0.84866452
-0.03197284 0.11838153 0.84917706
-0.031515121 0.11805712 0.8496595
-0.03218057 0.118466 0.84892845
-0.032249846 0.11841474 0.84880805
-0.03100878 0.11765496 0.85017282
-0.032610275 0.11867708 0.84843147
-0.032401375 0.11849158 0.848634
-0.032235518 0.11832066 0.84878361
-0.032559633 0.11856258 0.84844768
-0.032307558 0.11832497 0.8486855
-0.031668484 0.11794957 0.84939581
-0.03145206 0.11775121 0.84960264
-0.03150975 0.11783035 0.84955978
-0.031293802 0.11763632 0.8497681
-0.031586155 0.11771148 0.84939772
-0.0311317 0.11751784 0.84993726
-0.031152703 0.11745021 0.84987617
-0.031479314 0.117679 0.84953076
-0.031356394 0.11753757 0.84963465
-0.031509332 0.11753785 0.84942245
-0.031812094 0.11776283 0.84910816
-0.031125836 0.11729684 0.84984118
-0.032860249 0.1183262 0.84791863
-0.031699136 0.11759974 0.84918809
-0.031360805 0.11732248 0.84952694
-0.032013997 0.11774258 0.84881824
-0.030945413 0.11706927 0.84998429
-0.031008739 0.11702359 0.84987468
-0.030731194 0.11693004 0.85021591
-0.030385777 0.11665878 0.85056746
-0.030401278 0.11663772 0.85053611
-0.02959593 0.11609777 0.85139942
-0.030985568 0.11693536 0.84986526
-0.030112471 0.11637676 0.85081387
-0.031762805 0.11733539 0.84897482
-0.030699361 0.1166783 0.85014129
-0.030074317 0.11622456 0.85079503
-0.030515086 0.11653917 0.85033154
-0.028767426 0.1155078 0.85227126
-0.028295983 0.11515791 0.85276073
-0.028945215 0.11556593 0.85205185
-0.02890387 0.11546703 0.85206252
-0.028502651 0.11515922 0.85247445
-0.028894939 0.11544622 0.85206515
-0.028190257 0.11495716 0.85281283
-0.029151026 0.11555273 0.85175991
-0.028189402 0.11494409 0.85280788
-0.032487318 0.11900058 0.84875494
-0.031954348 0.11863725 0.84932357
-0.031729117 0.11844777 0.84954679
-0.032282412 0.1187854 0.84893787
-0.032459885 0.1188231 0.84870923
-0.032711729 0.11899094 0.8484388
-0.032312378 0.11870635 0.84885895
-0.031794354 0.11834579 0.84940803
-0.032151535 0.11857512 0.84902024
-0.031988412 0.11842959 0.84917819
-0.032635696 0.11874249 0.84842718
-0.032354653 0.11855726 0.84872985
-0.031754427 0.11815481 0.84937334
-0.031027913 0.11773445 0.85018367
-0.030985273 0.11763935 0.85019797
-0.03105548 0.11763658 0.85009921
-0.030608155 0.11731823 0.85057002
-0.030804366 0.11746781 0.85036826
-0.03066995 0.11732985 0.85048968
-0.030911893 0.11742486 0.85019863
-0.030860648 0.11733015 0.85022509
-0.031835653 0.11790563 0.84914291
-0.031801745 0.11781815 0.84914869
-0.032677941 0.11834159 0.84817916
-0.031990007 0.1178828 0.84891784
-0.031986043 0.11780677 0.84888744
-0.031832755 0.11776543 0.84908074
-0.032275803 0.11794531 0.84855044
-0.031308942 0.11736774 0.84962034
-0.030002192 0.11658221 0.85106403
-0.031675793 0.11754034 0.84919238
-0.030343235 0.11674203 0.85066587
-0.030086987 0.11652344 0.85091853
-0.031003721 0.11707482 0.84990585
-0.031045321 0.11702514 0.84982467
-0.032371771 0.11778483 0.84834146
-0.031364422 0.11716975 0.84944987
-0.031562969 0.11724561 0.8492099
-0.030040968 0.11633413 0.85089302
-0.02878933 0.11556429 0.85226756
-0.029426396 0.11596699 0.85157305
-0.028829888 0.1155571 0.85220784
-0.029368233 0.1158291 0.85158873
-0.029132839 0.11561955 0.85181659
-0.029527217 0.1158814 0.85139269
-0.028706549 0.11536548 0.85228872
-0.02759973 0.11470585 0.85351413
-0.028064089 0.11491056 0.85296595
-0.028989187 0.11543948 0.8519311
-0.028299205 0.11500312 0.85268319
-0.028097741 0.11486655 0.85289848
-0.032005847 0.11892792 0.84938914
-0.031565502 0.11858286 0.84983778
-0.031726718 0.11873768 0.84968698
-0.031959414 0.11877797 0.84938282
-0.031906694 0.11866713 0.8494038
-0.032474786 0.11903405 0.84878808
-0.031834215 0.1186033 0.84947425
-0.03237465 0.11896688 0.84889555
-0.032225952 0.11879313 0.84901989
-0.032313704 0.1187555 0.84888035
-0.032061994 0.11867316 0.84919089
-0.032143831 0.11863687 0.84906018
-0.032547519 0.11891587 0.84863138
-0.032596707 0.11885536 0.84853446
-0.032334253 0.11864288 0.84879863
-0.031684101 0.11833175 0.84955454
-0.031568855 0.11818613 0.84964573
-0.030900761 0.1178015 0.85039181
-0.030898936 0.11771302 0.8503527
-0.030874908 0.11775582 0.85040623
-0.030500256 0.11746491 0.85078907
-0.030891195 0.11759771 0.85030901
-0.030472025 0.11743233 0.85081297
-0.030655459 0.1174436 0.85056359
-0.031434551 0.11793634 0.8497144
-0.031146601 0.11769074 0.84999824
-0.030962698 0.117502 0.85016447
-0.03113813 0.11765577 0.84999347
-0.030822903 0.11742081 0.85032028
-0.030969471 0.11747028 0.85014009
-0.031853236 0.11786518 0.84909934
-0.031305708 0.11761831 0.84974313
-0.031365767 0.11756907 0.84963644
-0.032071859 0.11801573 0.84886694
-0.031695656 0.11773093 0.84925485
-0.031136066 0.1173333 0.84984404
-0.032408424 0.11810009 0.8484394
-0.031853482 0.11769301 0.84901768
-0.032986894 0.11839151 0.84777367
-0.032496259 0.11804019 0.84828907
-0.031432651 0.11736283 0.84944618
-0.031941652 0.11770599 0.84890145
-0.031341396 0.11729289 0.84953994
-0.031208716 0.11720288 0.84968162
-0.030976746 0.11697964 0.84989834
-0.031480331 0.11731176 0.84935588
-0.031102758 0.11702552 0.84974504
-0.030078303 0.11637011 0.85085821
-0.030721951 0.11680177 0.85016817
-0.029999044 0.11630883 0.85093933
-0.029402867 0.11589869 0.85157347
-0.030331355 0.11647345 0.8505556
-0.029912978 0.11614563 0.85098177
-0.030019961 0.11627156 0.85089266
-0.029132806 0.11570896 0.85185891
-0.028016783 0.1149934 0.8530708
-0.029101308 0.11565615 0.85187781
-0.028557343 0.11527646 0.85245383
-0.028045142 0.11490133 0.85298795
-0.029032152 0.11551325 0.85190624
-0.028150987 0.11493246 0.85285568
-0.033043027 0.11956091 0.84824789
-0.032225966 0.11908743 0.84915882
-0.034077838 0.12012099 0.84707522
-0.0325654 0.11923993 0.84875959
-0.033744439 0.11995025 0.84745771
-0.032177567 0.11902524 0.84919667
-0.03176567 0.11871533 0.84962237
-0.032330081 0.11909152 0.84901631
-0.031850263 0.11873392 0.84951371
-0.031497225 0.11845553 0.84987235
-0.033860773 0.11990389 0.8472743
-0.031569347 0.1185703 0.84982646
-0.031581014 0.1184717 0.84976375
-0.031918645 0.11863153 0.84937042
-0.031886086 0.11853993 0.84937233
-0.030838728 0.11801434 0.85057861
-0.030219048 0.11759681 0.85124183
-0.029970929 0.11742803 0.85150671
-0.030765533 0.11778723 0.85057288
-0.030396447 0.11763526 0.85101372
-0.030520424 0.11761616 0.85083246
-0.0303175 0.11742961 0.85102624
-0.030459791 0.1175773 0.85089839
-0.030407548 0.11745322 0.85091239
-0.030663416 0.11765764 0.85065353
-0.030552953 0.11751795 0.85074097
-0.03054516 0.11741984 0.8507055
-0.030774742 0.1176149 0.85047883
-0.030866548 0.11757302 0.85033154
-0.031055391 0.11774271 0.85014945
-0.030991726 0.11762208 0.85018092
-0.030738503 0.11740264 0.85042888
-0.031167254 0.11769438 0.84997129
-0.031420901 0.11774299 0.84964204
-0.031897679 0.11806205 0.84913063
-0.031733125 0.11789611 0.84928071
-0.031851776 0.11788121 0.84910893
-0.031653561 0.11783653 0.84936309
-0.032785788 0.11836527 0.84804058
-0.031351931 0.11762806 0.84968346
-0.032387041 0.11811694 0.84847707
-0.031933814 0.11784725 0.848979
-0.03212066 0.11785345 0.84872246
-0.031581476 0.11761817 0.84936011
-0.031730875 0.11762226 0.84915465
-0.03130921 0.11730453 0.84959012
-0.030443363 0.11689353 0.85059834
-0.031254187 0.11724999 0.84964073
-0.030650854 0.11690092 0.85031384
-0.030814897 0.11689893 0.85008502
-0.030672871 0.11688367 0.85027498
-0.029958081 0.11642663 0.85105181
-0.030186538 0.11645387 0.85074741
-0.029637408 0.11620833 0.85139406
-0.029142294 0.1158586 0.85191637
-0.029275961 0.11584163 0.85172284
-0.029011387 0.11575499 0.85204923
-0.029261962 0.11580382 0.85172433
-0.033587694 0.11988842 0.84764612
-0.033089951 0.11960471 0.84820336
-0.032736614 0.11935406 0.84857559
-0.033110216 0.1195268 0.84813845
-0.031448007 0.11853647 0.84997898
-0.031919211 0.11886726 0.84948087
-0.030246839 0.11784592 0.85132098
-0.030465826 0.11789326 0.85103917
-0.029676273 0.11750683 0.85195309
-0.030339777 0.11779875 0.85116959
-0.029324293 0.11716643 0.85228115
-0.029751763 0.11743711 0.85181534
-0.02989088 0.11745328 0.85162979
-0.029533535 0.11729513 0.85205138
-0.029872641 0.11739827 0.85162914
-0.030271947 0.11759228 0.85116631
-0.030698776 0.11776163 0.85065347
-0.029952258 0.11738603 0.85151279
-0.030417904 0.11756456 0.8509506
-0.030974336 0.11783691 0.85030639
-0.031189866 0.11789773 0.85003591
-0.030862801 0.11776444 0.85042715
-0.030866295 0.11768319 0.85038394
-0.031056151 0.11775628 0.85015488
-0.031234026 0.1177875 0.84992254
-0.032083184 0.11829503 0.84898305
-0.032087401 0.11822632 0.84894472
-0.032791771 0.11858229 0.84813476
-0.031854838 0.11799562 0.8491587
-0.032098502 0.11818337 0.84890902
-0.031659812 0.11785618 0.84936374
-0.031336196 0.11760329 0.84969372
-0.030990019 0.11745669 0.85010511
-0.031262793 0.11754118 0.84976631
-0.030888617 0.11728814 0.85016632
-0.03138034 0.11749312 0.84958041
-0.031249061 0.11746661 0.84975016
-0.030741252 0.11710621 0.85028511
-0.030529805 0.11695351 0.85050666
-0.030636109 0.11694567 0.85035527
-0.030612715 0.11690371 0.85036802
-0.030387953 0.11674882 0.85060692
-0.030236199 0.11658936 0.85074246
-0.030498005 0.11678173 0.85046977
-0.029559169 0.11619034 0.85149419
-0.029138561 0.11588787 0.85193545
-0.031977519 0.1189582 0.8494429
-0.031793028 0.11889939 0.84967136
-0.031112283 0.11846324 0.85041058
-0.02954343 0.1175191 0.85214329
-0.030687764 0.11821879 0.85088456
-0.029586449 0.1175204 0.85208422
-0.029298231 0.11728892 0.85237521
-0.029575467 0.11747431 0.85207772
-0.029228181 0.11721601 0.85243803
-0.030112445 0.11774437 0.85145962
-0.029514655 0.11734355 0.85210049
-0.028929874 0.11695229 0.85272771
-0.029228166 0.11715725 0.85241038
-0.02961728 0.11729708 0.85193598
-0.030517399 0.11783227 0.8509388
-0.030054629 0.11750189 0.85142535
-0.02957508 0.1171678 0.8519336
-0.030509606 0.11772826 0.85090053
-0.030273452 0.11753038 0.85113502
-0.030487418 0.11760923 0.85087514
-0.031488374 0.11813078 0.84973139
-0.030805528 0.11768566 0.85046947
-0.031956166 0.1183591 0.8491897
-0.031808555 0.1182131 0.84932566
-0.032062873 0.11831737 0.84902179
-0.0319065 0.11816239 0.84916574
-0.032023467 0.11826064 0.84904969
-0.032183789 0.11827447 0.84883356
-0.032120131 0.1182128 0.84889293
-0.031128824 0.11759169 0.84997612
-0.031895459 0.11807077 0.84913784
-0.030989423 0.11748356 0.85011864
-0.030290201 0.11702852 0.85087478
-0.031106554 0.11752079 0.84997368
-0.030912295 0.11734538 0.85016054
-0.031103224 0.11740946 0.8499257
-0.030383661 0.11694597 0.85070592
-0.030834287 0.11723252 0.85021555
-0.030022204 0.11671559 0.85109913
-0.029890053 0.11657161 0.85121465
-0.030488253 0.11693702 0.85055661
-0.030189298 0.1167075 0.85086334
-0.030561104 0.1182536 0.85107696
-0.030867696 0.11838709 0.85071421
-0.030400693 0.11815335 0.85125238
-0.030595392 0.11818703 0.85099798
-0.030622065 0.11819373 0.85096419
-0.029464766 0.11748114 0.8522346
-0.030210555 0.11795641 0.8514235
-0.029812977 0.11764251 0.85182738
-0.02940689 0.11733833 0.85224754
-0.030410364 0.11802997 0.85118061
-0.030105934 0.1177863 0.85148835
-0.029424354 0.11731157 0.8522107
-0.030364379 0.11790405 0.85118508
-0.030377313 0.11782017 0.85112751
-0.029795378 0.11742269 0.85174799
-0.030753553 0.1180198 0.85069937
-0.030246735 0.11764899 0.85122812
-0.031087741 0.11816472 0.85030377
-0.03046906 0.11772585 0.85095572
-0.030219197 0.11751471 0.85120291
-0.031743944 0.118504 0.84955287
-0.031584606 0.11832744 0.84969062
-0.031445637 0.11817121 0.84980977
-0.03188163 0.11847406 0.84934729
-0.031684339 0.11827967 0.84952962
-0.031828612 0.1183349 0.84935534
-0.031524509 0.11807507 0.84965491
-0.03237392 0.11861008 0.84872806
-0.031891473 0.11825512 0.84923041
-0.032527849 0.11867423 0.84854466
-0.032019161 0.11831039 0.84907913
-0.031719498 0.11805874 0.8493765
-0.031163894 0.11781222 0.85003161
-0.03108269 0.11767831 0.85008115
-0.030851707 0.11746918 0.85030311
-0.031070977 0.11765137 0.8500846
-0.030787371 0.11740587 0.8503626
-0.031233162 0.1177166 0.84989017
-0.031106271 0.11757229 0.84999835
-0.030425832 0.11710843 0.85072422
-0.031472117 0.11774682 0.84957266
-0.030548632 0.11714199 0.85056955
-0.029923812 0.11671907 0.85123742
-0.031087443 0.11750041 0.84999061
-0.03099566 0.11737413 0.85005832
-0.030150197 0.11681975 0.85097051
-0.032826856 0.1194789 0.84850925
-0.030958757 0.11842115 0.85060394
-0.032409862 0.11925381 0.8489821
-0.031047463 0.1184365 0.85048789
-0.029876962 0.11772805 0.85177886
-0.030773893 0.11827744 0.85079277
-0.030199483 0.11787753 0.85140157
-0.030602425 0.118136 0.85096419
-0.030369774 0.11793013 0.85118991
-0.031101391 0.11830507 0.85035104
-0.031038314 0.11820677 0.85039216
-0.031733036 0.11862972 0.8496272
-0.031305298 0.11832784 0.8500787
-0.031238243 0.11820868 0.8501156
-0.031176761 0.11821646 0.85020459
-0.031232089 0.11817957 0.85011035
-0.031971604 0.11861949 0.84929115
-0.031747073 0.11842158 0.84950942
-0.03225489 0.1186836 0.84892797
-0.032015696 0.11847807 0.84916312
-0.03252387 0.11880146 0.84861016
-0.032014728 0.11845461 0.8491534
-0.031832777 0.11827606 0.84932184
-0.031708844 0.11824144 0.84947753
-0.03118635 0.11787454 0.85002983
-0.032376848 0.11858338 0.84871143
-0.031384833 0.11796965 0.8497991
-0.030802682 0.11757234 0.85041988
-0.031994142 0.11827506 0.84909725
-0.031152949 0.11773491 0.85001028
-0.031372696 0.11782694 0.84974861
-0.031544834 0.11785361 0.84952217
-0.031215668 0.11771077 0.84991181
-0.031317711 0.11866928 0.85022265
-0.031704441 0.11887771 0.84978402
-0.030613542 0.11822235 0.8509894
-0.030261829 0.11800631 0.85137582
-0.029680535 0.11761498 0.85199827
-0.030607626 0.11818436 0.8509798
-0.030434608 0.11801804 0.85114133
-0.031434283 0.11861041 0.85003293
-0.030661836 0.11811253 0.85087055
-0.031216145 0.1183361 0.85020638
-0.030669391 0.11807451 0.85084218
-0.031039998 0.11820196 0.85038763
-0.031473264 0.11849357 0.84992367
-0.031509608 0.11843412 0.84984511
-0.032097399 0.11872973 0.84916854
-0.032113716 0.11866628 0.84911585
-0.031324804 0.11827338 0.85002589
-0.031636998 0.11837928 0.84964234
-0.032009214 0.11850832 0.8491863
-0.031782568 0.11842547 0.84946191
-0.031769961 0.11833979 0.84943914
-0.032077089 0.11856206 0.84911752
-0.032072753 0.11847698 0.84908336
-0.031861804 0.11828958 0.84928787
-0.03186845 0.11833631 0.84930062
-0.03175991 0.11820492 0.84938943
-0.031337224 0.11794381 0.84985298
-0.031084642 0.11771716 0.85009676
-0.02985093 0.11783823 0.85186696
-0.030952096 0.11847433 0.85063827
-0.031034544 0.11847222 0.85052282
-0.032511979 0.1193154 0.84886926
-0.03216669 0.11905473 0.8492257
-0.030605465 0.1181277 0.85095596
-0.033899873 0.12005258 0.84729016
-0.031693444 0.11879537 0.84976041
-0.030624121 0.11811823 0.85092556
-0.031221718 0.11841446 0.85023558
-0.030969501 0.11820675 0.85048783
-0.03111814 0.11832386 0.85033661
-0.031266242 0.11833814 0.85013765
-0.031394348 0.1184518 0.85001361
-0.03105253 0.11818665 0.85036296
-0.031015813 0.11809115 0.85036892
-0.031472921 0.11838691 0.84987378
-0.031800658 0.11849921 0.84947169
-0.031956166 0.11855564 0.84928238
-0.031575114 0.11827543 0.84967935
-0.031653404 0.11834735 0.84960437
-0.031472474 0.1181787 0.84977609
-0.031057537 0.11791203 0.85022634
-0.031472653 0.11870056 0.8500222
-0.031481549 0.11868064 0.8500005
-0.030535385 0.11809145 0.85103607
-0.031805173 0.11884267 0.84962749
-0.030919731 0.11827652 0.85058987
-0.031396315 0.11859861 0.85008013
-0.03120032 0.11840609 0.85026139
-0.030902565 0.11817119 0.85056388
-0.031457633 0.11851033 0.84995329
-0.031524256 0.11847369 0.84984344
-0.031443387 0.11848124 0.84995931
-0.031655133 0.11851136 0.84967953
-0.031343192 0.11826685 0.84999728
-0.032173097 0.1187677 0.84908134
-0.031354561 0.11824452 0.849971
-0.031292155 0.11859858 0.85022473
-0.031307101 0.11858612 0.85019809
-0.030594662 0.11812723 0.85097075
-0.032131076 0.11903637 0.84926647
-0.031237766 0.11845961 0.85023469
-0.032056972 0.11897463 0.8493402
-0.031145543 0.11838961 0.85032958
-0.030724958 0.1180702 0.8507629
-0.031572789 0.11859012 0.84983104
-0.031255737 0.11834976 0.8501578
-0.031541482 0.11870788 0.84993017
-0.063085571 0.10847005 0.8757875
-0.058881477 0.10848091 0.87219518
-0.051340345 0.10958005 0.86628568
-0.057127178 0.11535733 0.87409729
-0.049835619 0.11698144 0.86866134
-0.076505847 0.10083732 0.88349426
-0.071441971 0.10205746 0.87976474
-0.064804256 0.10409027 0.8750906
-0.059645049 0.1062627 0.87175059
-0.052666023 0.1084767 0.86687404
-0.075362422 0.10601169 0.8850767
-0.068330519 0.10582919 0.87896883
-0.062044006 0.10523677 0.8732959
-0.056181677 0.10769872 0.8694976
-0.050195139 0.10951065 0.86527139
-0.09247411 0.097953781 0.89573222
-0.088096738 0.09887851 0.89244384
-0.082095131 0.099713214 0.887721
-0.075503953 0.10207115 0.88324767
-0.06923534 0.10322426 0.87845391
-0.062969737 0.10545929 0.8741982
-0.056885749 0.10638337 0.86944914
-0.051211007 0.10812423 0.86545449
-0.086399354 0.10607285 0.89455205
-0.080165379 0.10668879 0.88952208
-0.10492533 0.092165574 0.90352261
-0.1012697 0.092451796 0.90053582
-0.093743429 0.094918162 0.89531595
-0.088243879 0.096563272 0.89142382
-0.082169145 0.098311096 0.88709044
-0.075643569 0.10002239 0.88235301
-0.068846814 0.1028591 0.87794065
-0.062002301 0.10451449 0.87290263
-0.05711247 0.10710482 0.87000018
-0.049480997 0.1091663 0.86448985
-0.10426487 0.096575327 0.90513998
-0.098610893 0.097012438 0.90051776
-0.092279561 0.095781967 0.89449066
-0.085711315 0.098491624 0.89021099
-0.079710454 0.10096602 0.88630038
-0.072998554 0.10190987 0.88102371
-0.066821508 0.10351932 0.87653422
-0.059638306 0.10550168 0.87136829
-0.053684477 0.10776652 0.86739415
-0.049990073 0.10878409 0.86473632
-0.1229376 0.086930305 0.9163456
-0.11845421 0.08831609 0.91319472
-0.11127169 0.089400657 0.90758514
-0.10449881 0.091459818 0.90280819
-0.098264322 0.09356083 0.89851296
-0.092908978 0.094869837 0.89457786
-0.086404353 0.097433105 0.89028013
-0.079388417 0.10015925 0.88562542
-0.073441058 0.10225674 0.88157403
-0.066895664 0.1040934 0.87688178
-0.060434513 0.10687714 0.87273037
-0.054260164 0.10775489 0.86788106
-0.047721885 0.109712 0.86325455
-0.11629099 0.095045112 0.91467404
-0.10925856 0.095805481 0.90903229
-0.13066526 0.082495585 0.92076373
-0.12503065 0.084412508 0.91689062
-0.11766048 0.086441346 0.9115876
-0.1112328 0.088640772 0.90717578
-0.10556573 0.091034651 0.90351081
-0.10044341 0.092777342 0.89998984
-0.093272105 0.095217064 0.89506048
-0.087022871 0.097343132 0.89076489
-0.080662414 0.099320315 0.88630038
-0.07423494 0.10153032 0.88189387
-0.067799777 0.10336021 0.87729269
-0.060341671 0.10504198 0.87174267
-0.054600932 0.10667281 0.86763716
-0.04839766 0.10854661 0.86325598
-0.13388121 0.086629242 0.92556173
-0.12804 0.086186364 0.92034388
-0.12183317 0.085284196 0.91458577
-0.11525692 0.086735263 0.90967631
-0.10922268 0.089734219 0.90599674
-0.1031582 0.091886804 0.90187234
-0.096882835 0.094421014 0.89775646
-0.090921581 0.096936107 0.8938998
-0.084655628 0.099167921 0.88964224
-0.078058422 0.10066171 0.884736
-0.0721751 0.1033282 0.88102102
-0.064959437 0.10516156 0.87575352
-0.05894696 0.10638368 0.8712132
-0.052235782 0.10821275 0.86637521
-0.13232337 0.091080047 0.92643142
-0.14692028 0.079866745 0.93337303
-0.14054056 0.080585651 0.92826927
-0.13440026 0.081662603 0.92354763
-0.12793328 0.083753102 0.91904825
-0.12138343 0.086356536 0.91473168
-0.11534232 0.08709494 0.90992743
-0.10919784 0.090064555 0.90613884
-0.10280067 0.092561439 0.90190017
-0.096869044 0.094787955 0.89792627
-0.090155028 0.096612543 0.89308375
-0.083938189 0.098158412 0.88852865
-0.076653793 0.10026 0.88333517
-0.071059287 0.10219331 0.87950438
-0.065605052 0.10492618 0.87618953
-0.059188183 0.1065566 0.8715052
-0.052839015 0.10800788 0.86679012
-0.14497234 0.085824855 0.93465489
-0.13826773 0.085851543 0.92893064
-0.13439403 0.083468474 0.92443621
-0.13267273 0.08178401 0.92212939
-0.12900978 0.083030142 0.91961157
-0.11540467 0.087658755 0.91025972
-0.11278829 0.088548854 0.90846133
-0.1023228 0.092109315 0.90126759
-0.088717669 0.096737899 0.89191574
-0.085054755 0.097984061 0.88939792
-0.078670822 0.10015595 0.88500971
-0.072205521 0.10141705 0.88010103
-0.06651254 0.10361651 0.87631786
-0.058836672 0.10575329 0.87080675
-0.052897785 0.10666862 0.86617762
-0.046887856 0.10947713 0.86242449
-0.16246693 0.077655703 0.94558293
-0.1581627 0.077200331 0.94167417
-0.15233299 0.077463694 0.93681562
-0.14463234 0.078800477 0.93088734
-0.13943344 0.080744535 0.92740053
-0.13327265 0.082546011 0.92301995
-0.12714979 0.084940866 0.91896558
-0.12103482 0.087099738 0.91480112
-0.11385144 0.08875861 0.90947497
-0.10752058 0.090826154 0.9050805
-0.10176975 0.093704149 0.90158367
-0.095452428 0.095170073 0.89690304
-0.089161232 0.097739764 0.89279115
-0.082733244 0.099500149 0.8881616
-0.076579653 0.10202661 0.88414603
-0.06958358 0.10354551 0.8789109
-0.063470028 0.10570389 0.87474734
-0.057402696 0.10714939 0.87027061
-0.050810523 0.10838853 0.8652426
-0.16157684 0.081296302 0.94662303
-0.17673279 0.07057929 0.95428872
-0.17110981 0.071313091 0.94983983
-0.16415697 0.073369615 0.94490778
