# .PCD v0.7 - Point Cloud Data file format
VERSION 0.7
FIELDS x y z rgb
SIZE 4 4 4 4
TYPE F F F U
COUNT 1 1 1 1
WIDTH 1132
HEIGHT 1
VIEWPOINT 0 0 0 1 0 0 0
POINTS 1132
DATA ascii
0.18313716 0.28104982 1.1137142 4290682781
0.20652895 0.28133431 1.113 4290023564
0.22811568 0.28173262 1.1120001 4290090127
0.23104024 0.28173262 1.1120001 4290155418
0.24858759 0.28173262 1.1120001 4290289568
0.25151217 0.28173262 1.1120001 4290224035
0.27198407 0.28173262 1.1120001 4290027423
-0.56541491 0.29148114 1.1120001 4288846219
-0.54180294 0.29107448 1.1147143 4289240724
-0.53566235 0.29250303 1.1146668 4288780431
-0.52642077 0.29148114 1.1120001 4288846986
-0.51122379 0.29031256 1.115 4290032050
-0.50421607 0.29127461 1.1142 4289703340
-0.49543756 0.29227287 1.1155 4289702822
-0.48547512 0.2924563 1.1157335 4289702054
-0.47529322 0.29190296 1.1136155 4289701796
-0.4639003 0.29079518 1.1147144 4289568666
-0.4546704 0.29219598 1.1164616 4289701281
-0.44514522 0.2930989 1.1151178 4289899172
-0.43561047 0.29193193 1.1131539 4289634465
-0.42490005 0.29128638 1.1125001 4289700512
-0.41366941 0.29107749 1.1137778 4290159781
-0.40510008 0.29208079 1.1161666 4290095266
-0.39540297 0.29147011 1.1142001 4290028957
-0.38460901 0.2908968 1.1135001 4290291359
-0.37921795 0.29148114 1.1120001 4288779146
-0.36341766 0.2911253 1.114375 4290620840
-0.35556591 0.29109344 1.1142499 4290489260
-0.34997234 0.29148114 1.1120001 4290817457
-0.33136684 0.29031256 1.115 4290817959
-0.32553497 0.29070207 1.114 4291014828
-0.31920704 0.29089683 1.1135001 4290948527
-0.30986223 0.29031256 1.115 4290948779
-0.060054295 -0.01476745 1.123 4284202239
-0.054751996 -0.012331851 1.1252501 4284201727
-0.044840295 -0.011580657 1.1241251 4284267775
-0.035338435 -0.012814613 1.1242858 4284398335
-0.024430748 -0.012380481 1.1246667 4284464383
-0.014787175 -0.013014029 1.1245002 4284332799
-0.0062443507 -0.013802677 1.1244999 4284463871
0.0041893707 -0.013555897 1.1245 4284792063
0.01522692 -0.013694898 1.1246667 4286368255
0.024284303 -0.013532386 1.1243638 4287614975
0.034467112 -0.013786899 1.1233001 4285776127
0.045087073 -0.015522589 1.124125 4285316351
0.053756222 -0.015876239 1.1240001 4285119487
0.14777379 0.16747686 1.1237501 4284301375
0.15174749 0.16455911 1.124 4284432698
0.14388148 0.17443047 1.1241251 4284366646
0.13890675 0.18521094 1.12375 4284235571
0.14115912 0.18261844 1.126 4284366899
0.13683197 0.19479559 1.1245 4284366143
0.13451956 0.20547238 1.124125 4285616973
0.13244666 0.21492323 1.1238571 4287064673
0.1280411 0.2245665 1.1235 4288115819
0.13128784 0.22309062 1.126 4287854189
0.12477193 0.23593783 1.1242001 4288512631
0.12240608 0.24579367 1.1247143 4288972675
0.11865246 0.25602537 1.1238573 4288970630
0.12141658 0.2517173 1.126 4289497484
0.11475031 0.26597095 1.1245 4289233540
0.25862718 0.26948559 1.126 4290421157
0.26257569 0.26948559 1.126 4290290082
0.28626674 0.26948559 1.126 4289631127
0.30748996 0.26899204 1.126 4289894813
0.31252429 0.26869589 1.126 4289698463
0.33467725 0.26828903 1.1246667 4289501603
0.3445453 0.26851124 1.1242858 4289238427
0.35527152 0.26850837 1.1246667 4289172891
0.36425599 0.26806968 1.1246667 4288975000
0.3742941 0.26832712 1.1249092 4288909716
0.38562998 0.26749972 1.1254002 4288910232
0.39487854 0.26719227 1.1240715 4288712850
0.40493047 0.26622722 1.12475 4288713112
0.4153688 0.26624587 1.1248333 4288647064
0.42447239 0.26536119 1.1246156 4288646551
0.43372336 0.2644501 1.1239001 4288252563
0.44482991 0.26495901 1.1242502 4288449687
0.45598537 0.26585823 1.124154 4288187797
0.46493199 0.26515797 1.1244 4288187544
0.47477496 0.26556668 1.1248463 4287858831
0.48463249 0.2645838 1.1247503 4287726476
0.49526379 0.26479128 1.1243638 4287660426
0.50433028 0.26601854 1.1243334 4287660686
0.5154075 0.26632553 1.1241251 4287333002
0.52292937 0.26471776 1.1242001 4287332488
0.53730142 0.26578936 1.1253999 4287202189
0.54507309 0.26623791 1.1243335 4287202187
0.55501276 0.26666051 1.1245002 4287136140
0.56418061 0.26778916 1.1249092 4287136393
0.57596737 0.26727375 1.125 4287070861
0.58537215 0.26573363 1.1247501 4287070606
0.59487545 0.26570272 1.1242 4286873483
-0.63077396 0.27935684 1.126 4288058251
-0.62366664 0.27856714 1.126 4287992203
-0.61524189 0.27841827 1.1254001 4288124299
-0.60807002 0.27935684 1.126 4288386951
-0.59523737 0.27935684 1.126 4288716433
-0.54588103 0.27935684 1.126 4288977302
-0.30502215 0.27935684 1.126 4291409595
-0.27639547 0.27935684 1.126 4291145130
-0.25448126 0.27896199 1.126 4291143329
-0.24626355 0.27868643 1.1255715 4291209893
-0.23472925 0.27910873 1.125 4291275442
-0.22407775 0.27935684 1.126 4291606459
-0.21434616 0.27845067 1.125 4291671222
0.11646138 0.2735143 1.1239002 4289629067
0.1250651 0.27747136 1.1249093 4290814372
0.13471361 0.27596977 1.1246365 4290814370
0.14524336 0.27487561 1.1245002 4290682524
0.15511346 0.27528542 1.1249288 4290945955
0.16434813 0.27518061 1.1245002 4291076769
0.17441107 0.27491742 1.1240002 4290945702
0.18439667 0.27511308 1.1248002 4290286747
0.19422361 0.27491662 1.1246156 4290220435
0.20504752 0.27405435 1.1245 4290089611
0.21444221 0.27442494 1.1242858 4290089359
0.22574957 0.27602592 1.1245 4289760656
0.23572987 0.27563649 1.125077 4289893008
0.24497397 0.27454701 1.1245002 4290289055
0.25525609 0.27201039 1.1242 4290289316
0.26518336 0.27208269 1.1245002 4289895841
0.2751444 0.27251467 1.1242502 4290026661
0.28515342 0.27225256 1.124091 4289697434
0.29483634 0.27215552 1.1248001 4289500305
0.30371165 0.2716091 1.1242858 4289566100
0.31514025 0.27150577 1.1238571 4289632668
0.32498607 0.27227178 1.1249093 4289698466
0.33403805 0.27097765 1.1240001 4289566881
0.3494963 0.27073658 1.123 4289303964
0.3554033 0.27073658 1.123 4289303964
0.36623275 0.27073658 1.123 4289041048
0.37115523 0.27073658 1.123 4289238423
0.55624062 0.27073658 1.123 4287136649
0.56510109 0.27073658 1.123 4287136139
-0.62647718 0.28135824 1.1238573 4287860879
-0.61394268 0.2813628 1.1235001 4287993480
-0.60531551 0.2822074 1.1242501 4288321421
-0.596838 0.28419295 1.1245002 4288387473
-0.58524269 0.28374749 1.1245002 4288256143
-0.57491815 0.28185996 1.1238183 4288650130
-0.56437355 0.28309986 1.1240716 4288518798
-0.5549069 0.2827315 1.1242858 4288913043
-0.54480267 0.28389487 1.124 4288913303
-0.53570104 0.28549957 1.1248001 4288912783
-0.52505547 0.28597042 1.1242858 4289043863
-0.51497757 0.28719342 1.1243637 4289768872
-0.50486821 0.28600168 1.1238573 4289703081
-0.49478912 0.2851721 1.1239474 4289570726
-0.48656562 0.28651208 1.1236924 4289768101
-0.47473645 0.28628704 1.1235001 4289636256
-0.46530092 0.28752702 1.1245 4289373080
-0.45538247 0.28783163 1.1254547 4289503646
-0.44513947 0.28613588 1.1242002 4289964196
-0.43474299 0.28430679 1.1245 4289963936
-0.42379585 0.28614312 1.1238573 4289634458
-0.41421962 0.28590035 1.1238824 4290094241
-0.40495187 0.28573069 1.1238998 4290028448
-0.39571485 0.28631297 1.1242501 4290357925
-0.38435605 0.28544083 1.1248463 4289962908
-0.37434626 0.28387552 1.1245883 4290093978
-0.3649154 0.28306291 1.1240002 4290093980
-0.35470623 0.28268778 1.1241539 4289895582
-0.34506795 0.2844643 1.1249093 4290685607
-0.33511168 0.28484342 1.1242859 4290488227
-0.32575545 0.28464848 1.1240716 4290949288
-0.31443477 0.28318697 1.1238573 4291014575
-0.30445379 0.28179091 1.1239001 4291277491
-0.29436395 0.28217524 1.1243638 4291277231
-0.28502622 0.283052 1.1250001 4291145648
-0.27491915 0.28280035 1.1240001 4291144876
-0.26528847 0.2830278 1.1242502 4291143848
-0.25540552 0.28190267 1.1232728 4291143586
-0.24513967 0.28156602 1.123 4291341739
-0.23613855 0.28114411 1.123 4291276978
-0.22440127 0.281571 1.1243334 4291803579
-0.21536832 0.28157243 1.1247143 4291933880
-0.51193827 0.29042652 1.123 4289703083
-0.46172893 0.29042652 1.123 4289438355
-0.45582199 0.29042652 1.123 4289569696
-0.44893047 0.29042652 1.123 4289964711
-0.40462813 0.29042652 1.123 4290094500
-0.052613053 -0.02292951 1.1371112 4284332543
-0.04528334 -0.021812832 1.1366668 4284594943
-0.035915278 -0.02095058 1.138 4284201215
0.0069835265 -0.02095058 1.138 4284266239
0.015629798 -0.021283129 1.138 4284331519
0.024922231 -0.020935852 1.1372001 4285579263
0.035042115 -0.022102872 1.1356 4287483391
0.04388418 -0.021445021 1.1339999 4286300927
-0.061160356 -0.017523399 1.1313334 4284398591
-0.054236483 -0.016408209 1.1321175 4284333055
-0.044446688 -0.016415633 1.1325883 4284398847
-0.034966186 -0.017219754 1.1346154 4284201215
-0.024576725 -0.017051166 1.1342858 4284267007
-0.015402157 -0.017390437 1.1333334 4284266751
-0.0046091941 -0.017265074 1.1340001 4284398079
0.0056927549 -0.017270492 1.1343637 4284397823
0.014523179 -0.017591512 1.1318182 4284857087
0.024838071 -0.017882597 1.1331999 4286826751
0.034744404 -0.017869974 1.1323999 4286957823
0.043771464 -0.018274993 1.1311429 4285185023
0.052567855 -0.018844241 1.1313334 4285184767
0.15282929 0.16969812 1.132 4284629824
0.14794061 0.17592265 1.1308889 4284497718
0.15264569 0.17614354 1.1339999 4284761409
0.14539364 0.18586318 1.133 4284564034
0.15213084 0.18456717 1.1369091 4285288273
0.1396793 0.19713604 1.13 4284695112
0.14452836 0.1949735 1.1340001 4285287761
0.15164229 0.19354345 1.138 4286407005
0.13809429 0.20506108 1.13 4285814352
0.14261505 0.20455368 1.136 4286340437
0.1368089 0.21608567 1.1335555 4287196255
0.14066818 0.21249874 1.138 4287063131
0.12977296 0.2288363 1.13 4288380788
0.13509724 0.22389929 1.1339999 4287985775
0.12836888 0.23511675 1.1316001 4288577402
0.1312128 0.23475066 1.1356 4288511354
0.12699258 0.24482124 1.1326667 4289104256
0.13069171 0.24442343 1.138 4289169537
0.1245299 0.25484434 1.1333333 4289498249
0.38497415 0.2587505 1.1366667 4289106844
0.39483136 0.25864017 1.1355999 4288974997
0.40433097 0.2589305 1.136 4288909718
0.41410705 0.25906554 1.1355 4288778649
0.42167842 0.25911054 1.1353334 4288778395
0.4352124 0.2589305 1.136 4288317846
0.44118077 0.2589305 1.136 4288449433
0.45639935 0.25860649 1.1372001 4288187031
0.46432123 0.2582418 1.1356 4288187284
0.47549874 0.25879553 1.1364999 4287857809
0.48613447 0.25947055 1.1340001 4287726987
0.49782565 0.25839049 1.138 4287661193
0.50613427 0.25879547 1.1365 4287595405
0.51590025 0.25791568 1.1353333 4287398279
0.52176923 0.25639519 1.138 4287529354
0.53385317 0.25947055 1.1340001 4287333258
0.58952504 0.25947055 1.1340001 4287005579
0.59160447 0.25839049 1.138 4287070350
0.118876 0.26648039 1.13 4289299852
0.12396351 0.26646593 1.1357501 4290090386
0.13643563 0.26888946 1.136 4290550940
0.1437255 0.26911336 1.1351429 4290485655
0.15477666 0.26894751 1.1357778 4290550942
0.16432241 0.26888949 1.1359999 4290748575
0.17059758 0.26836696 1.138 4290814368
0.18744828 0.26906362 1.1353334 4290352794
0.19552736 0.26875883 1.1365 4290155152
0.20515227 0.26888949 1.136 4290155409
0.21444611 0.26888946 1.136 4290089874
0.22516875 0.26875883 1.1365 4290221455
0.23437142 0.26823589 1.1361538 4290024335
0.24481687 0.26870081 1.1352 4290288029
0.25476599 0.26869941 1.1351999 4290289313
0.264698 0.26796648 1.1357143 4290289825
0.27468309 0.26771671 1.13525 4289961119
0.28471926 0.26748234 1.1342666 4289762971
0.29494527 0.26668707 1.1340002 4289565590
0.30446401 0.26647627 1.1339999 4289500309
0.31561518 0.26626807 1.1333333 4289698719
0.32516757 0.26627237 1.1335789 4289567905
0.33440077 0.2658034 1.1339999 4289501601
0.34527597 0.26636034 1.1346668 4289303451
0.35471579 0.26443246 1.13416 4289303965
0.36486626 0.26366484 1.1343076 4289106585
0.37486637 0.26321712 1.1330398 4289106585
0.38456738 0.26278451 1.1327275 4289106844
0.39458025 0.26255754 1.1312499 4288909719
0.40468183 0.2630198 1.1315999 4288844438
0.41449675 0.26212108 1.1309232 4288713111
0.42591366 0.26175842 1.1328572 4288580761
0.43546042 0.26139408 1.1330769 4288448914
0.4450269 0.2620177 1.1337498 4288449942
0.45513296 0.2621249 1.1335554 4288187290
0.4650324 0.26178879 1.132 4288188056
0.47414139 0.26180953 1.1326667 4287792784
0.48391876 0.26210883 1.1331428 4287661199
0.4952057 0.26166269 1.1342858 4287595657
0.50475758 0.26224983 1.1326668 4287529867
0.51421374 0.26338324 1.1308889 4287398538
0.52541709 0.2623117 1.1327369 4287463557
0.53567553 0.26260856 1.132857 4287267467
0.54590583 0.26325861 1.1337501 4287202187
0.55583459 0.26314595 1.1342351 4287070862
0.56552607 0.26371476 1.1334667 4287201929
0.57578099 0.2655066 1.1321999 4287071115
0.58578879 0.26253232 1.1329333 4287202187
0.59592277 0.26239669 1.1337779 4286939018
0.60246867 0.26193807 1.1346667 4286741894
-0.63389844 0.27554595 1.1362501 4288189841
-0.62677097 0.27651238 1.1355386 4288057740
-0.61521459 0.27711171 1.1343334 4288255369
-0.60591644 0.27778137 1.1357143 4288321162
-0.5951755 0.27572277 1.1358185 4288518543
-0.5856365 0.27578813 1.1347694 4288518546
-0.57550514 0.2765837 1.1348889 4288715663
-0.56593549 0.27654254 1.1350909 4288584081
-0.55616635 0.27827385 1.1358464 4288846226
-0.54519403 0.27834791 1.1365454 4289043352
-0.53599221 0.27845836 1.1366667 4288978326
-0.52987659 0.27935335 1.1340001 4288779659
-0.51279038 0.27834341 1.138 4290031526
-0.50525045 0.27835014 1.1359999 4290031530
-0.49712577 0.27874738 1.1364 4289702309
-0.47493592 0.27851173 1.1373334 4289636263
-0.4662908 0.27851173 1.1373334 4289899170
-0.4599151 0.27834341 1.138 4289109392
-0.42300218 0.27834341 1.138 4290160285
-0.41364077 0.27779055 1.1375556 4290226339
-0.40423629 0.27801499 1.1366669 4290226082
-0.39438364 0.27753666 1.1367502 4290227107
-0.38480359 0.27871355 1.1358181 4290159522
-0.37406072 0.27862108 1.136182 4290093720
-0.3642377 0.27753666 1.1367501 4290157976
-0.35469186 0.27797434 1.1365001 4290487713
-0.34474283 0.2779468 1.1372001 4290619296
-0.33430123 0.27779055 1.1375556 4290620065
-0.32502204 0.27827141 1.1364617 4291014319
-0.31412807 0.27843168 1.1363333 4291079855
-0.30424717 0.27717629 1.1361178 4291343540
-0.29448736 0.27688277 1.1354736 4291343026
-0.28495425 0.2767778 1.1354737 4291210671
-0.27479967 0.27650392 1.1347622 4291342513
-0.26495755 0.27755743 1.1348001 4291209642
-0.25442839 0.27642724 1.1342499 4291011743
-0.24462609 0.27646473 1.1350526 4291209637
-0.23494609 0.27736038 1.1340001 4291406762
-0.22517182 0.27711129 1.1340002 4291408055
-0.21674687 0.27703154 1.1335557 4291342515
0.118876 0.27143353 1.13 4289497486
0.1260462 0.27351412 1.1321176 4290551450
0.13457784 0.27224347 1.132737 4290616990
0.14547722 0.27192554 1.1304001 4290551193
0.15451568 0.27213886 1.1318183 4290748069
0.1656117 0.27215767 1.1323334 4291076769
0.17529768 0.27139556 1.1340002 4290879903
0.18505003 0.27133265 1.1331431 4290287001
0.19521815 0.27171829 1.1321539 4290286226
0.20520768 0.27162501 1.1308 4290090128
0.21582028 0.27220419 1.1324 4289958543
0.22517782 0.27246317 1.1321175 4290023822
0.23467363 0.27248782 1.1308572 4290155668
0.24468641 0.27143356 1.13 4290354588
0.25300777 0.27083915 1.13 4290223779
0.26747102 0.2704429 1.13 4289960863
0.27440542 0.2704429 1.13 4290091938
0.28133988 0.2704429 1.13 4290091676
0.29520872 0.2704429 1.13 4289500563
0.30214319 0.2704429 1.13 4289434512
0.31898391 0.2704429 1.13 4289830301
0.32591838 0.2704429 1.13 4289632928
-0.63103342 0.28034922 1.13 4287729286
-0.60408819 0.28074548 1.13 4288321929
-0.59404987 0.28282583 1.13 4288387216
-0.58612472 0.28067943 1.13 4288453266
-0.57555795 0.28034922 1.13 4288781456
-0.56565398 0.28084484 1.1306667 4288650131
-0.5557453 0.28034922 1.13 4288715665
-0.54469693 0.28145033 1.1326667 4289044126
-0.53558242 0.28246465 1.1337334 4288978322
-0.52571249 0.28306493 1.134348 4289043091
-0.51576132 0.28314328 1.1343639 4289899688
-0.505193 0.28225577 1.1321539 4289900713
-0.49364552 0.28156739 1.1336923 4289702309
-0.48474675 0.28336304 1.1344802 4289767333
-0.47494212 0.28318742 1.1338184 4289702051
-0.46459529 0.28310624 1.1331303 4289569950
-0.45520017 0.28293428 1.133826 4289832349
-0.4458566 0.28239831 1.1350666 4290029990
-0.43465519 0.28452286 1.1355999 4289831842
-0.42511877 0.283176 1.1354003 4289830812
-0.41509339 0.28164294 1.1333848 4290160038
-0.40455693 0.28206113 1.1318183 4290094752
-0.39506632 0.28266132 1.1313335 4290226339
-0.38557354 0.28240734 1.1315385 4290160297
-0.37545002 0.28074551 1.13 4290093720
-0.36554372 0.28034922 1.13 4289895577
-0.35457683 0.28091583 1.1311429 4289763988
-0.34483883 0.28183475 1.1340001 4290620066
-0.33475807 0.2814205 1.1336666 4290488735
-0.32550108 0.28183603 1.132 4291146160
-0.31532273 0.28105709 1.1305715 4291145394
-0.3036291 0.28034922 1.13 4291343026
-0.29421809 0.28034922 1.13 4291277228
-0.2853024 0.28034922 1.13 4291276721
-0.27110332 0.28100967 1.13 4291012773
-0.26416889 0.28067946 1.13 4291078052
0.018097907 -0.031171637 1.1470001 4284200447
0.021079449 -0.031117283 1.1450001 4283937791
-0.055015218 -0.023006363 1.141 4284398591
-0.043710694 -0.026362441 1.1418889 4284200959
-0.036309037 -0.024749041 1.1431539 4284266239
-0.025074244 -0.022070609 1.1442001 4284267007
-0.014888588 -0.022381539 1.146091 4284332287
-0.0050147087 -0.022070609 1.1442 4284200959
0.0052915015 -0.024447136 1.1458001 4284265983
0.014832322 -0.026235262 1.1439476 4284265983
0.024489181 -0.02549547 1.1435716 4284331263
0.031081049 -0.0250677 1.1436667 4284463103
0.1525422 0.19805478 1.141 4286867554
0.14783518 0.20765615 1.1427144 4286735198
0.152643 0.20486428 1.1455001 4287064420
0.14589724 0.21548556 1.1440771 4287393382
0.15165311 0.21477659 1.149 4287590506
0.13853408 0.22866417 1.1423334 4288314996
0.14379472 0.22492567 1.1454002 4288116338
0.15075773 0.22126804 1.149 4288181358
0.13727987 0.23497514 1.143 4288708478
0.1410206 0.23570587 1.149 4288774525
0.13661651 0.24496569 1.1467779 4289234559
0.14001331 0.2417496 1.149 4289234303
0.1290357 0.25907165 1.141 4289894029
0.13350643 0.25596583 1.1450001 4289695370
0.3077271 0.25836986 1.149 4289631381
0.31450436 0.25847858 1.1480001 4289697948
0.32468316 0.25887352 1.149 4289698723
0.33636308 0.25934765 1.1472857 4289435548
0.34527329 0.25862867 1.1472858 4289303703
0.35523075 0.25762489 1.1466002 4289369501
0.36488667 0.2573477 1.1452223 4289237914
0.37464491 0.25749582 1.1450001 4289106072
0.38492721 0.25709274 1.1455716 4289172379
0.39492795 0.25522014 1.1468949 4288843928
0.40519157 0.25596008 1.1450001 4288975252
0.41500813 0.25623721 1.1462309 4288778394
0.42496794 0.25638378 1.1460001 4288646548
0.43453613 0.25613654 1.1458001 4288449430
0.44470334 0.25589254 1.1456003 4288515995
0.45458305 0.25547269 1.1444548 4288318612
0.46429253 0.25446925 1.1445001 4288187540
0.4753693 0.25544259 1.1455002 4287923599
0.48487973 0.25576836 1.1467146 4287792269
0.49430567 0.25680688 1.1468948 4287792013
0.50481242 0.25577122 1.1464002 4287660683
0.51432312 0.25492045 1.1439334 4287529609
0.52608567 0.25606146 1.1446364 4287464071
0.5353868 0.25714281 1.1458002 4287398536
0.54492295 0.25613305 1.1465653 4287333001
0.55506104 0.25643867 1.1464818 4287136651
0.56518543 0.25530475 1.1465718 4287202440
0.57460588 0.2565577 1.1476668 4287267982
0.58535141 0.25819662 1.1466002 4287070860
0.59551865 0.25658846 1.1453639 4287070603
0.60458666 0.25670642 1.1457059 4286741893
0.61240208 0.25814283 1.1480001 4286610046
-0.64223981 0.26796281 1.1476668 4288321939
-0.63619614 0.26896778 1.1476668 4288321679
-0.59578305 0.26897842 1.1470001 4288518796
-0.3132672 0.26894644 1.149 4291408565
-0.30520886 0.26894644 1.149 4291408562
-0.29513597 0.26894644 1.149 4291409077
-0.28506309 0.26894644 1.149 4291343033
-0.26894644 0.26894644 1.149 4291276462
-0.25383708 0.26894644 1.149 4291143583
-0.24401601 0.26819098 1.149 4291274920
-0.23412296 0.26837084 1.149 4291472810
-0.22664027 0.26894644 1.149 4291407280
0.1290357 0.26307276 1.141 4290090893
0.13534376 0.26498991 1.1451906 4290156433
0.14486621 0.2660515 1.1452355 4290353812
0.15500547 0.2659286 1.1456668 4290419352
0.16487835 0.2648454 1.1455456 4290616731
0.1751017 0.26555178 1.1453481 4290813858
0.18445814 0.2654891 1.1462802 4290484890
0.19490138 0.26522416 1.1460001 4290287250
0.20502163 0.26501766 1.1461432 4290418325
0.21537837 0.26497179 1.146091 4290353304
0.22540934 0.26453826 1.1458697 4290419349
0.23516984 0.26350814 1.1464002 4290024597
0.24483414 0.26442459 1.1461668 4290485152
0.25498471 0.26443848 1.1455001 4290420127
0.26498234 0.26344261 1.1457059 4290420905
0.27469972 0.26399031 1.1450001 4290092190
0.28488377 0.26379642 1.1452501 4290025885
0.29475352 0.26333985 1.1452858 4289696920
0.30481321 0.26198277 1.145 4289565586
0.31477085 0.26247311 1.1437693 4289829020
0.32488886 0.26198277 1.1450001 4289567394
0.33429787 0.26225641 1.1439999 4289567135
0.34469658 0.26253012 1.1430001 4289304218
0.35271105 0.26152983 1.1430001 4289500315
0.49313641 0.26107222 1.141 4287726987
0.5491519 0.26107222 1.141 4287398549
0.55448669 0.26107222 1.141 4287267472
0.56415606 0.26107222 1.141 4287202187
0.57607687 0.26218221 1.1442728 4287333515
0.58350581 0.26171073 1.1423334 4287136907
0.60916847 0.26107222 1.141 4286741637
-0.63595653 0.27101409 1.1453637 4288321680
-0.62613314 0.27407071 1.1466473 4288387216
-0.61564356 0.27458817 1.146143 4288255628
-0.60543382 0.27274558 1.1458001 4288321165
-0.59621865 0.27103817 1.1436667 4288453002
-0.58470029 0.27185509 1.1450001 4288518799
-0.57494187 0.27259845 1.1436667 4288649362
-0.56492037 0.27352422 1.1454 4288583821
-0.55492234 0.27572173 1.1456155 4288780944
-0.54504967 0.27553502 1.1450001 4288978328
-0.53416103 0.27582413 1.1447144 4289043860
-0.52494133 0.27631301 1.1457621 4288779913
-0.51540577 0.27615231 1.1450001 4290096814
-0.50409037 0.27525038 1.1466472 4289966254
-0.49480093 0.27601281 1.147182 4289899177
-0.48501807 0.27661324 1.1452107 4289767845
-0.47489494 0.27623433 1.1452668 4289833641
-0.46475315 0.27727756 1.1466668 4289767331
-0.45441782 0.27664101 1.145667 4289569440
-0.44476265 0.27584058 1.1442003 4289898146
-0.43477246 0.27575156 1.1451603 4289964195
-0.42425963 0.27526489 1.1453812 4289962906
-0.41474271 0.27344206 1.1445295 4290028705
-0.40523702 0.27324 1.1454445 4290291619
-0.39603627 0.27301806 1.1455001 4290357928
-0.38475171 0.2741648 1.1448183 4289962398
-0.37532985 0.27385885 1.1450002 4290158747
-0.36539134 0.27266628 1.1452355 4290290337
-0.35508615 0.27365163 1.145 4290422175
-0.34474713 0.27421424 1.1452502 4290553505
-0.33480054 0.27372912 1.1452354 4290684836
-0.32450357 0.27375469 1.1456318 4291014570
-0.31523642 0.27375895 1.1453481 4291277746
-0.30508932 0.27245629 1.1452502 4291212471
-0.29463977 0.27189532 1.1444668 4291343029
-0.28480276 0.27208397 1.1452669 4291276974
-0.27494645 0.2726827 1.1472501 4291210926
-0.26469576 0.27306497 1.1461112 4291209894
-0.25584969 0.272939 1.1467501 4291011998
-0.24554317 0.27233925 1.1463335 4291340710
-0.23497562 0.27266464 1.1441581 4291472807
-0.22482556 0.27253023 1.1443334 4291275951
-0.21726449 0.27383789 1.1442001 4291341484
-0.52698624 0.28005555 1.1450001 4288714368
-0.44212228 0.28107774 1.141 4290293164
-0.43482319 0.28147349 1.1417999 4290095267
-0.42911869 0.28107774 1.141 4290028957
-0.031334698 -0.03335629 1.153 4284331519
-0.02735346 -0.032419134 1.1556667 4284528383
0.008098647 -0.03138905 1.155 4284199679
-0.033753421 -0.027341189 1.1550001 4284397311
-0.025322787 -0.027039839 1.1554614 4284332031
-0.01518825 -0.026733074 1.155 4284266495
-0.0039374996 -0.026423804 1.1543334 4284266239
0.0033716599 -0.028336206 1.1543334 4284266239
0.1546519 0.2132781 1.153 4287919722
0.14788157 0.22677842 1.1537999 4288312687
0.15163089 0.22593133 1.1556667 4288378480
0.1447964 0.23541699 1.155 4288707964
0.13847914 0.24966678 1.153 4289563781
0.14209569 0.2457127 1.155 4289365633
0.42830864 0.24908555 1.155 4288778642
0.43345466 0.24927931 1.1543332 4288515474
0.4841716 0.24966678 1.153 4287725963
0.49396572 0.24850431 1.1570001 4287923846
0.56704158 0.24937618 1.1539999 4287136390
0.57110012 0.24966678 1.153 4287202953
0.13857523 0.25590897 1.1538 4289761163
0.14090693 0.25545424 1.1563333 4289826955
0.15838589 0.25902316 1.1556667 4290419348
0.16099545 0.25921106 1.155 4290354064
0.17141727 0.25864735 1.1570001 4290550426
0.18225901 0.25921106 1.155 4290747542
0.20757276 0.25921106 1.155 4290550425
0.21870905 0.25921106 1.155 4290354075
0.2248812 0.25907013 1.1554999 4290418846
0.23490986 0.25921106 1.155 4289958549
0.24503537 0.259211 1.155 4290353821
0.25404987 0.25896946 1.1558572 4290486176
0.26514807 0.25907013 1.1554999 4290289832
0.27386191 0.25864735 1.1570001 4290157728
0.28560409 0.25896946 1.1558571 4290025884
0.29448414 0.25914842 1.1552222 4289631379
0.30477753 0.25840098 1.155 4289565589
0.31490305 0.25516084 1.155 4289763745
0.3251631 0.25779012 1.1548181 4289697953
0.33512664 0.25758386 1.1555454 4289567134
0.34527954 0.2559709 1.155 4289304474
0.35461143 0.25373995 1.1548181 4289370009
0.36447388 0.25397199 1.1552222 4289172378
0.37516639 0.25479051 1.1552857 4289106586
0.38484713 0.2542024 1.1545384 4289172380
0.39455786 0.25223324 1.1554999 4288909720
0.40550363 0.25274956 1.1547778 4288909463
0.41492572 0.25270197 1.1553332 4288778902
0.4247627 0.25212324 1.1549999 4288713107
0.43520582 0.25125507 1.1545 4288515475
0.44541261 0.25176889 1.1559091 4288778655
0.45609739 0.25176886 1.1559089 4288384663
0.46536565 0.25159428 1.1556667 4288318871
0.47483885 0.25299221 1.1554999 4287989392
0.48570901 0.25131792 1.1552857 4287792265
0.49448749 0.25204989 1.1546667 4287726729
0.50361431 0.25184482 1.1551538 4287661195
0.5145672 0.25310224 1.1559999 4287595400
0.52467972 0.25322378 1.1554 4287529609
0.53416574 0.25307196 1.1552223 4287464586
0.54411453 0.252096 1.1557999 4287333001
0.55510682 0.25140026 1.1547778 4287201929
0.56297779 0.25111064 1.155 4287202185
0.57760537 0.2524263 1.1543334 4287267979
0.58554131 0.25408468 1.1547142 4287136396
0.59385169 0.25325382 1.1539999 4287267473
0.60638487 0.25317845 1.1558572 4286873224
0.61359876 0.25432423 1.1547778 4286610051
-0.64372557 0.26655334 1.155 4288321686
-0.63527101 0.26771647 1.155 4288190349
-0.62547034 0.26742807 1.1537058 4288256141
-0.6160152 0.26830426 1.1543332 4288321420
-0.60595 0.26894721 1.1547778 4288190091
-0.59563208 0.26908386 1.155 4288584333
-0.58444154 0.26861873 1.1554 4288453266
-0.57612747 0.26762003 1.1563333 4288189583
-0.56329018 0.26863435 1.1563333 4288516488
-0.55685252 0.26879039 1.1570001 4288846225
-0.53255439 0.26906347 1.156 4289109915
-0.52530986 0.26872867 1.155 4288779911
-0.51628041 0.26879039 1.1570001 4289437601
-0.4320932 0.26879039 1.1570001 4289896859
-0.42692703 0.26960963 1.1539999 4289962141
-0.41495097 0.26939723 1.1547778 4289831328
-0.40487766 0.2692436 1.1545999 4290225827
-0.39825389 0.26988271 1.153 4290752418
-0.38336971 0.26941457 1.1547143 4289896601
-0.37549344 0.26947308 1.1545 4290093206
-0.3652088 0.26960963 1.154 4290158748
-0.35520217 0.26925853 1.1552857 4290422174
-0.34531987 0.26835439 1.1551331 4290750884
-0.33765957 0.26884356 1.1543332 4290946987
-0.32460982 0.26901799 1.1548181 4291080104
-0.31554195 0.26748192 1.1548666 4291409079
-0.30434471 0.26650363 1.1545384 4291474609
-0.29479507 0.26631132 1.1544285 4291344311
-0.28471887 0.26633397 1.1551538 4291276977
-0.27565357 0.26733854 1.1548946 4291275945
-0.26533556 0.26693159 1.1540525 4291209384
-0.25562757 0.26637822 1.1542499 4291209382
-0.24563877 0.26571551 1.1546667 4291275430
-0.2351106 0.2659761 1.1543332 4291537577
-0.22494091 0.26702794 1.1540666 4291340976
-0.21843147 0.26863572 1.1545999 4291275437
0.14509098 0.26234147 1.1546665 4290089874
0.15429436 0.26212469 1.1544545 4290287250
0.16555279 0.26123613 1.155 4290485143
0.1756541 0.2611739 1.1552222 4290747803
0.18732174 0.26123616 1.155 4290747805
0.19542214 0.26123613 1.155 4290221463
0.20504138 0.26123613 1.155 4290286997
0.2146606 0.26123616 1.155 4290484889
0.2247861 0.26123613 1.155 4290419356
0.24966678 0.26179633 1.153 4290682791
0.25769308 0.26123613 1.155 4290420898
0.26376489 0.26123613 1.155 4290421157
0.27541184 0.26123613 1.155 4290026653
0.28351226 0.26123616 1.155 4289895069
0.29464999 0.26160958 1.1536666 4289631641
-0.6317479 0.27190429 1.153 4287926658
-0.62568313 0.27190429 1.153 4288388238
-0.61658597 0.27190429 1.153 4288321163
-0.58576059 0.27163297 1.154 4288584855
-0.57475626 0.27149671 1.1551818 4288715662
-0.56427598 0.27206096 1.1544545 4288714637
-0.55502033 0.27241451 1.1545999 4288911759
-0.54475015 0.27318388 1.155 4289043861
-0.53512675 0.27250391 1.1542307 4288977810
-0.52332443 0.27218586 1.1542 4289043085
-0.51454329 0.27220511 1.1549999 4289702829
-0.50381285 0.27164653 1.1547778 4289439913
-0.49441543 0.27200356 1.1545 4289570724
-0.48454252 0.2730124 1.1538889 4289570460
-0.47430781 0.27338573 1.1549999 4289437343
-0.4654355 0.27406123 1.1549999 4289371804
-0.45564571 0.27237386 1.155 4289304468
-0.44533375 0.2715942 1.1541427 4289897630
-0.43521577 0.2715942 1.154143 4289831068
-0.42637324 0.27154252 1.1543332 4290093984
-0.41240501 0.27190429 1.153 4290028194
-0.39339978 0.2712841 1.1552857 4290357158
-0.38915673 0.27190429 1.153 4290159527
-0.36236522 0.27118075 1.1556667 4290026908
-0.35418794 0.27154252 1.1543332 4290422430
-0.34569246 0.27190429 1.153 4290684836
-0.33394632 0.27154252 1.1543334 4290947240
-0.32850891 0.27190429 1.153 4291078821
-0.21718934 0.27237594 1.155 4291143849
-0.032569923 -0.03155211 1.161 4284331775
-0.022442082 -0.033666044 1.1636667 4284397055
-0.014976387 -0.034379847 1.1647779 4284331519
-0.0056580654 -0.033866514 1.1658001 4284265727
0.0050890502 -0.032569923 1.161 4284200447
-0.032569923 -0.02951649 1.161 4284265727
-0.025445249 -0.02951649 1.161 4284397311
-0.015776055 -0.02951649 1.161 4284266239
-0.0067854002 -0.028837949 1.1610001 4284265983
0.15395406 0.22838393 1.1630001 4288575860
0.14880383 0.2351141 1.161 4288839034
0.15303355 0.23551562 1.1663334 4288904569
0.14650804 0.24493453 1.1614445 4289300353
0.15171903 0.24492449 1.1671818 4289234048
0.32794344 0.24903207 1.169 4289895073
0.33559653 0.24805041 1.168 4289632413
0.34448704 0.24844645 1.169 4289369244
0.35458887 0.24903207 1.169 4289369755
0.36688673 0.24903207 1.169 4289434780
0.37508535 0.24903207 1.169 4289171863
0.38409582 0.24783707 1.1676667 4289172378
0.39496762 0.24816015 1.1677999 4288974998
0.40546435 0.24821566 1.165923 4288909716
0.41503537 0.24791977 1.1649998 4288843929
0.4248462 0.24776046 1.1642501 4288647317
0.43521196 0.24847406 1.164 4288449683
0.44595534 0.2472121 1.1650001 4288515991
0.45434412 0.24674736 1.1652224 4288450714
0.46531674 0.24748068 1.1660908 4288515992
0.47538731 0.24686275 1.1661766 4288055698
0.48526272 0.24632043 1.1651542 4287989132
0.4952898 0.24593161 1.1644784 4287858059
0.50535858 0.24680331 1.1648 4287792782
0.51573563 0.24682935 1.1654003 4287595400
0.52435011 0.24649727 1.1652106 4287594891
0.53440762 0.24735236 1.1643336 4287529354
0.54435837 0.24715333 1.1650002 4287398541
0.55431527 0.24779169 1.165 4287267467
0.56489152 0.24767405 1.1654706 4287333257
0.5748654 0.24784608 1.1647334 4287202445
0.58406091 0.24832781 1.1667778 4287071118
0.59598005 0.24822345 1.1660908 4287201933
0.60479099 0.24773736 1.1653334 4286939015
0.6152817 0.247628 1.1658572 4286675584
0.62205344 0.24649881 1.1683334 4286544251
-0.65281248 0.25825545 1.169 4288255378
-0.64768833 0.25825548 1.169 4288386705
-0.63539046 0.25928029 1.169 4288518800
-0.62616706 0.25928029 1.169 4288255630
-0.32691863 0.25928029 1.169 4291012511
-0.30232286 0.25928029 1.169 4291146678
-0.23304482 0.25887036 1.169 4291736245
-0.22546113 0.2572307 1.1689999 4291539896
0.14619704 0.25561464 1.1616665 4289760910
0.15388152 0.25551847 1.1644784 4289826447
0.16604987 0.25774378 1.1639334 4290222230
0.17543757 0.25668508 1.165 4290550681
0.1852757 0.25586146 1.1648259 4290617246
0.19497682 0.25555724 1.1652763 4290089619
0.20463812 0.25709748 1.1650002 4290287508
0.21502328 0.2565026 1.1644547 4290419610
0.22507553 0.255254 1.1639473 4290419352
0.23499882 0.25519204 1.1641582 4290024851
0.24501351 0.25532302 1.1634444 4290222492
0.2555038 0.25539297 1.1645789 4290485921
0.26500568 0.25478849 1.165 4290355108
0.27555355 0.2556079 1.1651906 4290157981
0.28495324 0.2543287 1.1642728 4290091679
0.29469737 0.25470135 1.164273 4289893783
0.30497807 0.25452492 1.1642383 4289696661
0.31472582 0.252956 1.1653078 4289632157
0.32558316 0.25299039 1.1645999 4289697951
0.33463979 0.25321662 1.1624738 4289566623
0.34415749 0.25250876 1.1630001 4289369756
0.35432938 0.25129387 1.1636666 4289435547
0.36557612 0.25124812 1.1626668 4289237659
0.37529045 0.25189152 1.1632859 4289040792
0.38463661 0.25132638 1.1628463 4289237915
0.3953335 0.25081083 1.163 4288975254
0.40421611 0.25092846 1.1626 4288844180
0.41357014 0.25139907 1.161 4288909972
0.42137334 0.25139907 1.161 4288647319
0.45412412 0.25236401 1.1623334 4288450201
0.46511561 0.2505587 1.1638572 4288450201
0.47516537 0.25095788 1.1625 4287990160
0.48244193 0.25139907 1.161 4288120206
0.51501185 0.25139907 1.161 4287464328
0.52417213 0.25139907 1.161 4287595146
0.53363574 0.25120297 1.1616668 4287398799
0.54249275 0.25139907 1.161 4287333258
0.55368865 0.25139907 1.161 4287398280
0.56284893 0.25139907 1.161 4287333258
0.58794761 0.25149053 1.163 4287267720
0.59454721 0.25089484 1.1627144 4287202188
0.6058687 0.25095788 1.1625 4286873224
0.61624497 0.25158998 1.161889 4286675846
0.62198186 0.25022259 1.1650001 4286544253
-0.65200299 0.26209322 1.1663334 4288453021
-0.64421111 0.26332772 1.1640475 4288255637
-0.6342333 0.26349545 1.1650002 4288321421
-0.6243 0.26321039 1.166 4288584340
-0.61519885 0.26478907 1.1647896 4288321165
-0.6055578 0.26450557 1.1653202 4288452490
-0.59550637 0.26515746 1.1653202 4288715409
-0.58490884 0.2649895 1.1644001 4288650387
-0.57460827 0.2647568 1.1646922 4288121992
-0.564596 0.26469937 1.165 4288515972
-0.55442452 0.26620308 1.1645201 4288911759
-0.54452902 0.26647267 1.1650001 4288977811
-0.53488958 0.26645142 1.1645293 4289306519
-0.52415818 0.2667411 1.1658 4289042579
-0.51509321 0.2669453 1.1658003 4289569692
-0.5057922 0.26807019 1.1657999 4289373088
-0.49519619 0.26815391 1.1666 4289569693
-0.48454332 0.26780504 1.1671817 4289437850
-0.47486204 0.26711032 1.1664739 4289371288
-0.46527857 0.26722229 1.167889 4289634454
-0.45508236 0.26801285 1.1665384 4289370511
-0.4447805 0.26746684 1.1655717 4289896867
-0.43544617 0.26642755 1.1658422 4289963165
-0.4257243 0.26772061 1.166111 4290160034
-0.41524053 0.26666632 1.1654707 4290093982
-0.40496323 0.26668146 1.1655334 4290291106
-0.39502624 0.26641226 1.1658003 4290423723
-0.38546336 0.26594797 1.1651821 4289961369
-0.37474465 0.26722616 1.164765 4290093206
-0.3652238 0.26646414 1.1653334 4290224282
-0.35506845 0.26517028 1.1652354 4290618784
-0.34481183 0.26358458 1.1654003 4290881954
-0.33503899 0.26508868 1.164077 4290815911
-0.32577053 0.26396367 1.1638571 4291013798
-0.31494501 0.26342776 1.165421 4291540918
-0.30505875 0.26289874 1.1657501 4291343538
-0.2947917 0.26326874 1.1652857 4291343543
-0.28517094 0.26299733 1.165923 4291408304
-0.27541271 0.26247367 1.1650001 4291276205
-0.26499107 0.2631354 1.1646365 4291078310
-0.25504366 0.26253375 1.1652665 4291340967
-0.24501152 0.26306003 1.1653334 4291472810
-0.235186 0.262685 1.1647334 4291538353
-0.22501782 0.2632089 1.1645296 4291341746
-0.21679352 0.26971966 1.161 4290749352
0.14961807 0.26157716 1.161 4289958289
0.15165369 0.26157716 1.161 4290154385
-0.55165303 0.27175528 1.161 4288977302
-0.54656398 0.27175528 1.161 4289043858
-0.51195842 0.27175528 1.161 4289504428
-0.5099228 0.27175528 1.161 4289307048
-0.49495524 0.2710638 1.1635001 4289635486
-0.48578489 0.27126357 1.1627778 4289372564
-0.47375414 0.27120212 1.163 4289370521
-0.46448967 0.27126354 1.1627779 4289437333
-0.45421281 0.27120209 1.1630001 4289304722
-0.44410443 0.27175528 1.161 4289700506
-0.43867612 0.27175528 1.161 4289698976
-0.21679352 0.2737909 1.161 4290946215
0.44781709 0.23835427 1.177 4288646036
0.45091262 0.23835427 1.177 4288647319
0.15657443 0.24515983 1.1750002 4289365119
0.18660375 0.24897552 1.1760001 4290221975
0.19419032 0.24934572 1.1747779 4290088593
0.2053355 0.24867263 1.177 4290352270
0.21587448 0.24887456 1.1763334 4290485149
0.22458184 0.24891493 1.1762002 4290748327
0.23422691 0.24867263 1.177 4290287515
0.24144977 0.24867263 1.177 4290089875
0.25722319 0.24897553 1.1760001 4290485668
0.26329893 0.248869 1.1755002 4290617509
0.27343673 0.24867263 1.177 4290485666
0.28602707 0.24873799 1.1755456 4290353564
0.29542753 0.24907205 1.1750002 4289960856
0.30466887 0.24903573 1.1751819 4289631895
0.31496844 0.24833226 1.1754001 4289763740
0.32486045 0.24750774 1.1754001 4289895071
0.33443233 0.24596754 1.1754616 4289763230
0.34518903 0.24634138 1.1745001 4289500572
0.35450077 0.24732389 1.1755002 4289500574
0.3639001 0.24806567 1.1759092 4289368985
0.37519529 0.24662872 1.1751333 4289172118
0.38509646 0.24540076 1.1748183 4289172123
0.39472756 0.24536376 1.1750002 4289040539
0.40457314 0.24540077 1.1748184 4288909461
0.41512355 0.24474606 1.1750002 4288909719
0.42478052 0.24403174 1.1745386 4288778391
0.43536001 0.24421318 1.1748948 4288581270
0.44464236 0.24380669 1.1756089 4288646803
0.45594862 0.24171877 1.1748464 4288516254
0.46633193 0.24427417 1.1750001 4288516250
0.4758541 0.24276829 1.1754001 4288055439
0.48487979 0.24202661 1.1758001 4287988878
0.49413401 0.24139872 1.1755002 4287923084
0.50550336 0.24265872 1.1764287 4287989648
0.51452827 0.24279693 1.1754616 4287660683
0.52611113 0.24232578 1.1750001 4287660169
0.53509915 0.24245161 1.1748669 4287529098
0.5454734 0.24203792 1.1755716 4287398539
0.55510217 0.24301857 1.1757693 4287267213
0.56436586 0.2430768 1.1754001 4287267210
0.57448995 0.24324384 1.1750001 4287267981
0.58493227 0.24477527 1.1752859 4287136652
0.59553283 0.24574673 1.1750002 4287136399
0.60537016 0.24425386 1.1748464 4286939018
0.61537403 0.24441715 1.1754001 4286741378
0.62367016 0.24304126 1.175182 4286609792
-0.65443623 0.25529656 1.1747779 4288190103
-0.64562184 0.25751838 1.1762729 4288321168
-0.63457954 0.258991 1.177 4288387471
-0.6242612 0.258991 1.177 4288387726
-0.61428678 0.25830314 1.177 4288386695
-0.60651362 0.25775278 1.177 4288518541
-0.59743345 0.258991 1.177 4288715146
-0.58505142 0.258991 1.177 4288584082
-0.57550693 0.25821713 1.177 4288121992
-0.56751013 0.258991 1.177 4288187522
-0.43027589 0.258991 1.177 4290160279
-0.42511672 0.258991 1.177 4290093213
-0.40138447 0.258991 1.177 4290357160
-0.39519343 0.258991 1.177 4290620068
-0.38487506 0.258991 1.177 4289829780
-0.37352487 0.258991 1.177 4290420631
-0.36423832 0.258991 1.177 4290289048
-0.35391998 0.258991 1.177 4290882464
-0.34478393 0.25850037 1.1763334 4290883241
-0.33447143 0.25850037 1.1763334 4290751142
-0.32559437 0.25785512 1.1758573 4290946725
-0.31510362 0.25781345 1.1754001 4291606714
-0.30449158 0.25710705 1.1750002 4291278262
-0.29628614 0.25827566 1.1764287 4291607227
-0.28480464 0.2579971 1.1760001 4291540661
-0.27627426 0.25821716 1.177 4291276460
-0.26449412 0.25864705 1.177 4291275688
-0.25456885 0.25840139 1.177 4291538088
-0.24289437 0.25857827 1.177 4291670187
-0.23416135 0.25619569 1.1746001 4291539383
-0.22715819 0.25351849 1.1746 4291671743
0.15881932 0.25301838 1.1752857 4289826443
0.16516444 0.2535342 1.1753531 4290089871
0.17478892 0.25225958 1.1751335 4290221717
0.18434925 0.25163397 1.174778 4290419612
0.20538068 0.25195214 1.1745387 4290286994
0.21447913 0.25205347 1.1743336 4290484893
0.22523096 0.25176784 1.1743335 4290550945
0.23485725 0.25133854 1.1750002 4290221976
0.24515869 0.25185332 1.1750001 4290221465
0.25415242 0.251634 1.174778 4290551458
0.26587951 0.25145903 1.1746 4290552231
0.27503225 0.25133854 1.1750002 4290223517
0.28173876 0.25153932 1.1743335 4290354072
0.29581627 0.25194085 1.1730001 4289959571
0.30404291 0.25194085 1.1730001 4289762203
0.31466898 0.25194085 1.1730001 4289895574
0.32186729 0.25194085 1.1730001 4290092966
-0.64355451 0.26075622 1.1738001 4288255374
-0.63242292 0.26016748 1.1730001 4288321418
-0.62275207 0.26113531 1.1747143 4288650644
-0.61494136 0.26068163 1.1730001 4288124297
-0.60568637 0.26016748 1.1730001 4288518285
-0.59436381 0.26090345 1.1740001 4288845967
-0.5851084 0.2610009 1.1736668 4288912274
-0.57392251 0.26071474 1.174143 4288449924
-0.56390315 0.26113531 1.1747143 4288582020
-0.55465132 0.26170439 1.1747779 4288846221
-0.54584157 0.26311836 1.177 4288517266
-0.53560275 0.26298994 1.1756668 4289043088
-0.52531809 0.26274341 1.1753335 4289175190
-0.51453906 0.26212099 1.1738573 4289569434
-0.50458747 0.26383895 1.1753531 4289766817
-0.49487099 0.26515016 1.1754616 4289635486
-0.48459139 0.2646392 1.1746001 4289569951
-0.47541529 0.26249009 1.1752223 4289634712
-0.4655959 0.2634939 1.1750001 4289831318
-0.45531523 0.26390249 1.1748464 4289699220
-0.44521108 0.26225102 1.1746669 4289830558
-0.43462643 0.26245534 1.1754616 4290225570
-0.42523208 0.26288 1.1752859 4290028188
-0.41563833 0.2628409 1.1750001 4290225312
-0.40498176 0.26277229 1.1754616 4290159777
-0.39570618 0.26130238 1.174143 4290686377
-0.38478935 0.26161191 1.1744548 4290026902
-0.37602857 0.26270348 1.175154 4290224279
-0.36483192 0.26134431 1.1740911 4290486427
-0.35522753 0.26152852 1.1745002 4290684576
-0.34449056 0.26016748 1.1730001 4290947749
-0.33523554 0.26016748 1.1730001 4290816170
-0.32255283 0.26085302 1.1730001 4291474361
-0.31569731 0.26016748 1.1730001 4291476413
-0.30678514 0.26016748 1.1730001 4291278519
-0.29473424 0.26127142 1.1745001 4291606712
-0.28484741 0.26016748 1.1730001 4291539889
-0.27403226 0.26065812 1.1736668 4291210923
-0.26539266 0.26127142 1.1745001 4291144102
-0.25502583 0.26016748 1.1730001 4291275944
-0.24608518 0.26127142 1.1745001 4291604398
-0.23960088 0.26016748 1.1730001 4291473325
0.15894404 0.23893198 1.1850001 4288971129
0.16102175 0.23997435 1.1850001 4289365632
0.37837547 0.23869967 1.189 4289435023
0.39821529 0.23965567 1.186 4289040535
0.40508676 0.23833396 1.1863334 4288975250
0.41457528 0.23912854 1.187 4289041049
0.42452633 0.23815686 1.1857059 4288778388
0.43518758 0.23711157 1.1847646 4288580759
0.44493315 0.23658623 1.1836665 4288514969
0.45546305 0.23678492 1.1834617 4288647065
0.46413785 0.23769793 1.1832857 4288515995
0.47474971 0.23789199 1.1849999 4288120980
0.48513833 0.23789199 1.1849999 4287857804
0.49472904 0.23756166 1.1855717 4287791500
0.50547045 0.23879628 1.1857272 4287857809
0.51437169 0.2369321 1.1845789 4287726219
0.52441227 0.23697442 1.1847894 4287594634
0.53520054 0.23717746 1.1857059 4287529354
0.54528064 0.23734511 1.1849998 4287463818
0.5553022 0.23638129 1.1842 4287201416
0.56444848 0.23705234 1.1827499 4287136136
0.57466269 0.23826154 1.1858001 4287201675
0.58552593 0.23920257 1.1863335 4287136137
0.59557492 0.23779429 1.1853077 4287201673
0.6054998 0.23810796 1.1860667 4287070088
0.61482239 0.23817194 1.1846668 4286675839
0.62395513 0.23835637 1.1835454 4286544259
0.63125521 0.2383192 1.1836667 4286741122
-0.6639812 0.24912326 1.189 4288716702
-0.65456086 0.24849643 1.1876667 4288387993
-0.64829588 0.24766183 1.187 4288584343
-0.61394805 0.24912325 1.189 4288453004
-0.60769391 0.24912325 1.189 4288649870
-0.29290223 0.24912326 1.189 4291540144
-0.28456336 0.24912325 1.189 4291407796
-0.27518216 0.24912325 1.189 4291275954
-0.26580095 0.24912325 1.189 4291342000
-0.25746208 0.24912325 1.189 4291341484
-0.23661496 0.24912326 1.189 4291473846
0.15840752 0.24123499 1.1810001 4289233787
0.16469295 0.24607927 1.1839998 4289563524
0.17515907 0.24714084 1.1837367 4289892235
0.18457623 0.24661686 1.1845 4290089873
0.19500914 0.24737597 1.1860909 4290088847
0.20522924 0.24679261 1.1853333 4290286731
0.21497533 0.24550092 1.1858419 4290550936
0.22507831 0.24629201 1.1847144 4290616738
0.23547876 0.24573889 1.1845293 4290419354
0.24549238 0.24578485 1.1844283 4290287508
0.25488636 0.24540669 1.1837825 4290617504
0.2650111 0.24470977 1.1854706 4290684067
0.27487981 0.24679166 1.1841578 4290419874
0.28443724 0.24508689 1.1843685 4290288800
0.29518017 0.24431962 1.1850001 4290025629
0.30499324 0.24427348 1.1848181 4289828505
0.31513736 0.24421479 1.1847143 4289697948
0.3248876 0.2434034 1.1855334 4289763740
0.33464691 0.24214981 1.1855 4289763231
0.34519151 0.2430844 1.1850001 4289566621
0.35506439 0.2432899 1.186 4289566103
0.36474237 0.24357675 1.1849999 4289369238
0.3743062 0.24276066 1.1856666 4289237397
0.38475105 0.24201827 1.1855334 4289237913
0.394427 0.24211597 1.1837693 4289106329
0.40481925 0.24227035 1.181 4288974998
0.41559452 0.24251547 1.1822 4288844183
0.42552614 0.24123499 1.1810001 4288778134
0.43380883 0.24123497 1.1810001 4288647064
0.46693984 0.24175265 1.1810001 4288516251
0.47522259 0.24123499 1.1810001 4288120978
0.4876467 0.24123499 1.1810001 4288054413
0.49800014 0.24123499 1.1810001 4287857805
0.50421214 0.24123499 1.1810001 4287923091
0.51387537 0.24123497 1.1810001 4287660941
0.52491903 0.24123499 1.1810001 4287595148
0.53941387 0.24123499 1.1810001 4287529354
0.55805004 0.24123499 1.1810001 4287201673
0.57668626 0.24123499 1.1810001 4287399056
0.58565927 0.24158011 1.1810001 4287201932
0.59532243 0.24227035 1.181 4287201680
0.60498565 0.24158011 1.1810001 4287070347
0.61455017 0.24212244 1.1810001 4286741378
0.62431204 0.24123499 1.1810001 4286609794
0.6305241 0.24123499 1.1810001 4287068805
-0.66218531 0.25149333 1.1830001 4288585378
-0.65541959 0.25187019 1.1823334 4288321431
-0.64544857 0.25361294 1.1829998 4288255628
-0.63487732 0.2545532 1.1840767 4288453006
-0.62425011 0.25443348 1.1838331 4288518544
-0.61512399 0.25328311 1.1835001 4288583821
-0.60529262 0.2537463 1.1839564 4288518539
-0.59535521 0.25546855 1.1840397 4288649618
-0.58541459 0.25582495 1.1849998 4288715925
-0.5739693 0.25474679 1.1860907 4288253314
-0.56476289 0.25600201 1.1854998 4288713605
-0.55616659 0.25769386 1.1860527 4288713605
-0.54514134 0.25826743 1.1863334 4288581250
-0.53500426 0.25762954 1.1849999 4288778892
-0.52453321 0.25787938 1.1845555 4289108878
-0.51441824 0.25756863 1.1852 4289701023
-0.50593495 0.25889894 1.187 4289832609
-0.49470195 0.25733408 1.1875457 4289964450
-0.48534504 0.25825855 1.1855 4289766817
-0.47411251 0.25774187 1.1852351 4289634713
-0.46482453 0.25763014 1.1850001 4289962905
-0.45455334 0.25705215 1.1849999 4289765014
-0.44503701 0.25603071 1.1845554 4289698968
-0.43505794 0.25579184 1.1846521 4290422693
-0.42506799 0.25637734 1.1844544 4289962141
-0.41507733 0.25761023 1.1841577 4290291104
-0.40513203 0.2561509 1.1848093 4290093210
-0.39500833 0.25530371 1.1849999 4290620069
-0.3851876 0.25436199 1.1851817 4290159002
-0.3756828 0.2551901 1.1839565 4290223512
-0.36507082 0.25563037 1.1843998 4290486166
-0.35488576 0.25475094 1.1849997 4291014052
-0.34478003 0.25442529 1.1845999 4291145903
-0.33551192 0.2544401 1.1855453 4291145900
-0.32532462 0.25433841 1.1852105 4290881445
-0.31504214 0.25481406 1.1844666 4291737785
-0.30450267 0.2537584 1.1854705 4291408560
-0.29498768 0.25427848 1.1843998 4291540665
-0.28551325 0.25339711 1.1834762 4291408564
-0.27486295 0.25400168 1.1843042 4291341743
-0.26529607 0.25396153 1.1846361 4291341740
-0.25521642 0.25403839 1.184478 4291340970
-0.24557234 0.25450417 1.1841303 4291868348
-0.23596774 0.25270727 1.1836668 4291408311
-0.22889328 0.25174797 1.1850001 4291671481
-0.55173367 0.26134658 1.1830001 4288188552
-0.54693216 0.26154503 1.1823335 4287990145
-0.53458226 0.26194185 1.1810001 4289174417
-0.50299186 0.26134661 1.1830002 4289766561
-0.49480727 0.26177719 1.1828184 4289701282
-0.4855122 0.26206762 1.1815716 4289767075
-0.47522259 0.26194185 1.1810001 4289700505
-0.46383497 0.26160172 1.182143 4289831323
-0.45589617 0.26194185 1.1810001 4289765268
-0.413102 0.26194185 1.1810001 4290159521
0.43548855 0.22981203 1.197 4288579473
0.47431523 0.22981203 1.197 4288186001
0.48585832 0.22981203 1.197 4287923599
0.50509679 0.22946225 1.197 4287989910
0.51434124 0.22921239 1.1969999 4287529353
0.52573436 0.22981203 1.197 4287463557
0.53517872 0.22981203 1.197 4287528839
0.54427326 0.22946225 1.197 4287398532
0.55385745 0.22939229 1.197 4287332494
0.57715344 0.22981203 1.197 4287202188
0.58484882 0.22946225 1.197 4287267469
0.59079528 0.22981203 1.197 4287201673
0.63801694 0.22981203 1.197 4286872202
0.16274598 0.23856607 1.1946 4289037178
0.20777526 0.23820698 1.197 4290154903
