# .PCD v0.7 - Point Cloud Data file format
VERSION 0.7
FIELDS x y z rgb
SIZE 4 4 4 4
TYPE F F F U
COUNT 1 1 1 1
WIDTH 1184
HEIGHT 1
VIEWPOINT 0 0 0 1 0 0 0
POINTS 1184
DATA ascii
0.097605161 0.5934087 1.245 4278190080
0.1038754 0.59245545 1.243 4278190080
0.11047991 0.59016651 1.245 4278190080
0.0074638869 0.60168189 1.242 4278190080
0.030012729 0.5966509 1.245 4278190080
0.045920998 0.59748387 1.24 4278190080
0.11974999 0.59958029 1.2409999 4278190080
-0.060013957 0.60540336 1.243 4278190080
0.0010428631 0.60540336 1.243 4278190080
0.010657629 0.60394222 1.24 4278190080
0.036450103 0.60313529 1.245 4278190080
0.055717431 0.60265082 1.244 4278190080
0.11493748 0.60604519 1.2410001 4278190080
-0.0021724 0.60912997 1.244 4278190080
0.010657629 0.61040056 1.24 4278190080
0.11672946 0.60864037 1.243 4278190080
0.0026453582 0.61735636 1.2410001 4278190080
0.0074729016 0.61698151 1.2435 4278190080
0.033204719 0.61560911 1.244 4278190080
0.039668787 0.6193462 1.245 4278190080
-0.031142334 0.6225884 1.245 4278190080
-0.024625586 0.62381989 1.2410001 4278190080
-0.0021680342 0.62245405 1.2415 4278190080
0.0042529558 0.62108821 1.242 4278190080
0.0074518677 0.62008804 1.24 4278190080
0.021938898 0.62345815 1.2435 4278190080
0.039509475 0.62008804 1.24 4278190080
0.063577667 0.62033808 1.2405 4278190080
0.001044541 0.62907279 1.245 4278190080
0.01388575 0.62755692 1.242 4278190080
0.001043702 0.63180709 1.244 4278190080
-0.059869111 0.64269221 1.24 4278190080
-0.051980164 0.63777316 1.243 4278190080
-0.045460865 0.64133549 1.2405 4278190080
-0.040667318 0.63997877 1.2410001 4278190080
-0.027811501 0.64269221 1.24 4278190080
-0.10804259 0.64644229 1.2410001 4278190080
-0.068049036 0.64748406 1.243 4278190080
-0.063176602 0.64696318 1.242 4278190080
-0.040634546 0.64915055 1.24 4278190080
-0.0021741462 0.64852595 1.245 4278190080
-0.10839083 0.65176809 1.245 4278190080
-0.056754742 0.65343195 1.242 4278190080
-0.043875661 0.64967412 1.2410001 4278190080
-0.024605742 0.65237975 1.24 4278190080
-0.0021654149 0.65237975 1.24 4278190080
-0.12262754 0.66016638 1.2425001 4278190080
-0.10195345 0.66149467 1.245 4278190080
-0.098655455 0.6609633 1.244 4278190080
-0.060110517 0.65825248 1.245 4278190080
-0.056754742 0.65990067 1.242 4278190080
-0.052471776 0.65882343 1.242 4278190080
-0.047235768 0.65825248 1.245 4278190080
-0.034250624 0.65613765 1.2410001 4278190080
-0.12408432 0.66260117 1.2410001 4278190080
-0.11445928 0.66583294 1.2410001 4278190080
-0.085515201 0.66529644 1.24 4278190080
-0.072809398 0.66313505 1.242 4278190080
-0.067966275 0.66448402 1.2415 4278190080
-0.037489153 0.66636944 1.242 4278190080
-0.087152556 0.67040974 1.2405 4278190080
-0.072926641 0.67068207 1.244 4278190080
-0.067967571 0.66933429 1.2415 4278190080
-0.14023896 0.6760726 1.242 4278190080
-0.13092165 0.67446339 1.245 4278190080
-0.11143023 0.67661697 1.243 4278190080
-0.10348091 0.67716128 1.244 4278190080
-0.092223249 0.67716128 1.244 4278190080
-0.068525575 0.67714977 1.242 4278190080
-0.063176602 0.6760726 1.242 4278190080
-0.045607455 0.67419255 1.2444999 4278190080
-0.14511052 0.68443072 1.2425001 4278190080
-0.13943039 0.68166393 1.2443333 4278190080
-0.12719008 0.6846714 1.24 4278190080
-0.12107078 0.67985392 1.243 4278190080
-0.095362648 0.67985392 1.243 4278190080
-0.063074872 0.68144226 1.24 4278190080
-0.011811204 0.68309093 1.243 4278190080
-0.1629775 0.68687999 1.244 4278190080
-0.15963298 0.68794632 1.243 4278190080
-0.13724868 0.68687999 1.244 4278190080
-0.10795552 0.6879006 1.24 4278190080
-0.23023769 0.69414163 1.2425001 4278190080
-0.22354306 0.69491893 1.2410001 4278190080
-0.20157072 0.69659877 1.244 4278190080
-0.18825124 0.69491893 1.2410001 4278190080
-0.10496095 0.69414163 1.2425001 4278190080
-0.1659264 0.69871318 1.242 4278190080
-0.15802492 0.69927573 1.243 4278190080
-0.15283617 0.69758809 1.24 4278190080
-0.25221476 0.71050477 1.24 4278190080
-0.23977783 0.71488506 1.242 4278190080
-0.21087945 0.71488506 1.242 4278190080
-0.15770903 0.71079123 1.2405 4278190080
-0.22086734 0.7160362 1.244 4278190080
-0.22033472 0.72077304 1.2410001 4278190080
-0.21070968 0.71754128 1.2410001 4278190080
-0.20412834 0.71696305 1.24 4278190080
-0.17877014 0.71811944 1.242 4278190080
-0.15629363 0.716501 1.2420001 4278190080
-0.14654274 0.72077304 1.2410001 4278190080
-0.25946057 0.72575498 1.244 4278190080
-0.23618595 0.72342139 1.24 4278190080
-0.21460752 0.72309619 1.245 4278190080
-0.20766853 0.72458822 1.242 4278190080
-0.185192 0.72458822 1.242 4278190080
-0.17570056 0.72193462 1.243 4278190080
-0.15345246 0.72309619 1.245 4278190080
-0.32538936 0.73061311 1.244 4278190080
-0.31735039 0.72899461 1.244 4278190080
-0.29805377 0.73223412 1.244 4278190080
-0.29412669 0.73046839 1.2410001 4278190080
-0.29162157 0.73223412 1.244 4278190080
-0.28129327 0.73046839 1.2410001 4278190080
-0.27487659 0.72723657 1.2410001 4278190080
-0.26867622 0.73105693 1.242 4278190080
-0.2331681 0.72723657 1.2410001 4278190080
-0.22748226 0.72958064 1.245 4278190080
-0.22265422 0.72958064 1.245 4278190080
-0.18855463 0.72840863 1.243 4278190080
-0.31658509 0.73370016 1.2410001 4278190080
-0.29781419 0.73811948 1.243 4278190080
-0.28989503 0.73517811 1.2435 4278190080
-0.28496012 0.73811948 1.243 4278190080
-0.26845992 0.73370016 1.2410001 4278190080
-0.26589274 0.73547375 1.244 4278190080
-0.18870631 0.73547375 1.244 4278190080
-0.30794942 0.7425493 1.245 4278190080
-0.30375171 0.74016368 1.2410001 4278190080
-0.27724043 0.74183732 1.242 4278190080
-0.23637643 0.74016368 1.2410001 4278190080
-0.22390331 0.74135649 1.243 4278190080
-0.30448598 0.74519253 1.244 4278190080
-0.27875715 0.74843204 1.244 4278190080
-0.25241816 0.74662721 1.2410001 4278190080
-0.24318442 0.74783045 1.243 4278190080
-0.28770998 0.7563225 1.2410001 4278190080
-0.28427237 0.75571305 1.24 4278190080
-0.27761215 0.75362903 1.2436666 4278190080
-0.27028042 0.75369763 1.2420001 4278190080
-0.26567903 0.75430447 1.243 4278190080
-0.26183203 0.7524839 1.24 4278190080
-0.25432616 0.75400102 1.2425001 4278190080
-0.31831551 0.76147491 1.2415 4278190080
-0.2650378 0.76217139 1.24 4278190080
-0.25422704 0.75854909 1.242 4278190080
-0.36018774 0.76663506 1.242 4278190080
-0.34252417 0.7666316 1.242 4278190080
-0.32352233 0.76725233 1.243 4278190080
-0.26225436 0.76663506 1.242 4278190080
-0.35508525 0.76924968 1.2410001 4278190080
-0.33743805 0.77086419 1.2409999 4278190080
-0.2946007 0.77372628 1.243 4278190080
-0.36588582 0.77497125 1.245 4278190080
-0.34307921 0.77758837 1.244 4278190080
-0.29436365 0.77633816 1.242 4278190080
0.92877197 0.14285928 1.2460001 4278190080
0.93199325 0.13961448 1.2460001 4278190080
0.94715315 0.13995062 1.249 4278190080
0.9349851 0.1465731 1.25 4278190080
0.93994206 0.14633858 1.248 4278190080
0.95085287 0.14465496 1.2474999 4278190080
0.96083796 0.1449455 1.25 4278190080
0.88580167 0.15296105 1.249 4278190080
0.94316846 0.15121359 1.248 4278190080
0.93870538 0.15777612 1.2485 4278190080
0.92703629 0.16583858 1.248 4278190080
0.93249893 0.16297942 1.251 4278190080
0.90840489 0.16922405 1.249 4278190080
0.87471169 0.17869528 1.247 4278190080
0.87793559 0.17869528 1.247 4278190080
0.88398594 0.17601068 1.251 4278190080
0.88831896 0.17558858 1.248 4278190080
0.90445113 0.17558858 1.248 4278190080
0.8714878 0.18194267 1.247 4278190080
0.88004762 0.18238039 1.25 4278190080
0.8848964 0.1807541 1.25 4278190080
0.90767765 0.18208858 1.248 4278190080
0.8714878 0.18843748 1.247 4278190080
0.87934363 0.18711209 1.2490001 4278190080
0.89154541 0.18533859 1.248 4278190080
0.90985954 0.18578412 1.251 4278190080
0.89477181 0.19508858 1.248 4278190080
0.85811234 0.19881536 1.251 4278190080
0.86035639 0.19942278 1.248 4278190080
0.86573386 0.19833858 1.248 4278190080
0.8705709 0.1983386 1.248 4278190080
0.3978996 0.20483859 1.248 4278190080
0.82635385 0.20467445 1.247 4278190080
0.83024299 0.20483859 1.248 4278190080
0.83924925 0.20792183 1.247 4278190080
0.84382427 0.20825531 1.249 4278190080
0.86181623 0.20467445 1.247 4278190080
0.86446363 0.20654957 1.2485001 4278190080
0.87428337 0.20533098 1.251 4278190080
0.81668228 0.21441664 1.247 4278190080
0.82834184 0.21167727 1.25 4278190080
0.8289125 0.21099991 1.2460001 4278190080
0.83535504 0.21099991 1.2460001 4278190080
0.85096312 0.21167727 1.25 4278190080
0.86123586 0.21142326 1.2485001 4278190080
0.8714878 0.21116924 1.247 4278190080
0.81606776 0.21510443 1.251 4278190080
0.82704288 0.21595849 1.2496667 4278190080
0.83090818 0.21476051 1.249 4278190080
0.83837187 0.21664736 1.2505 4278190080
0.86896026 0.2145886 1.248 4278190080
0.80636352 0.22397907 1.2460001 4278190080
0.82900453 0.22162007 1.251 4278190080
0.83992231 0.22433859 1.248 4278190080
0.84179759 0.22397907 1.2460001 4278190080
0.84637517 0.22433859 1.248 4278190080
0.76571405 0.2308386 1.248 4278190080
0.80217361 0.23065364 1.247 4278190080
0.80862856 0.22948973 1.2495 4278190080
0.82767916 0.22777094 1.249 4278190080
0.83194953 0.22854948 1.2473333 4278190080
0.8422085 0.22777095 1.2490001 4278190080
0.77017277 0.23446374 1.25 4278190080
0.79279405 0.23771894 1.25 4278190080
0.76056767 0.24211851 1.2474999 4278190080
0.76832438 0.24364321 1.247 4278190080
0.77017277 0.24097414 1.25 4278190080
0.7773186 0.24068499 1.2485 4278190080
0.78766751 0.2403958 1.247 4278190080
0.75149286 0.24555868 1.2485001 4278190080
0.76087314 0.24871227 1.2479999 4278190080
0.7805934 0.24669261 1.2460001 4278190080
0.72377032 0.25358859 1.248 4278190080
0.75220513 0.25338539 1.247 4278190080
0.76732469 0.25358859 1.248 4278190080
0.78309923 0.25236738 1.25 4278190080
0.80765784 0.25358859 1.248 4278190080
0.81281984 0.25206131 1.2485001 4278190080
0.7135188 0.25988019 1.247 4278190080
0.75280833 0.258461 1.248 4278190080
0.76658416 0.25893405 1.2476667 4278190080
0.77171022 0.25812772 1.2490001 4278190080
0.77986759 0.26050541 1.25 4278190080
0.70041215 0.266909 1.2495 4278190080
0.71294659 0.26616138 1.2460001 4278190080
0.71817827 0.26528138 1.2495 4278190080
0.73227429 0.26291659 1.2460001 4278190080
0.7352128 0.26722944 1.251 4278190080
0.75542891 0.2631276 1.247 4278190080
0.75804442 0.26291659 1.2460001 4278190080
0.66784883 0.27265096 1.2460001 4278190080
0.68827945 0.2730886 1.248 4278190080
0.69150591 0.2730886 1.248 4278190080
0.72331309 0.27189732 1.25 4278190080
0.7319786 0.27374506 1.251 4278190080
0.7334497 0.2698386 1.248 4278190080
0.76632756 0.27330741 1.249 4278190080
0.77216697 0.27146488 1.2479999 4278190080
0.66676116 0.27678144 1.25 4278190080
0.67537367 0.27958861 1.248 4278190080
0.75724632 0.28003666 1.25 4278190080
0.77092957 0.27589574 1.2460001 4278190080
0.70545918 0.28585935 1.247 4278190080
0.71029496 0.28585935 1.247 4278190080
0.7610864 0.28026068 1.251 4278190080
0.67429137 0.28887492 1.2460001 4278190080
0.69205993 0.30908605 1.249 4278190080
0.23980387 0.41608861 1.248 4278190080
0.24303029 0.43233863 1.248 4278190080
0.24948318 0.46158862 1.248 4278190080
0.20140879 0.51115644 1.25 4278190080
0.23638783 0.50992966 1.247 4278190080
0.21747983 0.5158335 1.2495 4278190080
0.22367164 0.51358861 1.248 4278190080
0.22860479 0.51379436 1.2485 4278190080
0.23458764 0.51276559 1.2460001 4278190080
0.2396117 0.51642448 1.247 4278190080
0.24625674 0.51683861 1.248 4278190080
0.21687065 0.51925516 1.2460001 4278190080
0.24141967 0.52008861 1.248 4278190080
0.24625674 0.52008861 1.248 4278190080
0.17702994 0.5270105 1.249 4278190080
0.1820191 0.5274325 1.25 4278190080
0.18818077 0.52658862 1.248 4278190080
0.19186732 0.52459663 1.251 4278190080
0.19786009 0.52983862 1.248 4278190080
0.21450673 0.52459663 1.251 4278190080
0.16437665 0.53437012 1.251 4278190080
0.17043792 0.531461 1.248 4278190080
0.2170447 0.53266144 1.247 4278190080
0.22403009 0.53068769 1.25 4278190080
0.22726169 0.532314 1.25 4278190080
0.24767005 0.53266144 1.247 4278190080
0.13010478 0.54121101 1.248 4278190080
0.17499411 0.5419687 1.2460001 4278190080
0.18825617 0.54142725 1.2485001 4278190080
0.20414928 0.53915626 1.247 4278190080
0.21314633 0.53908008 1.2493334 4278190080
0.22079848 0.54045331 1.25 4278190080
0.2468487 0.53762788 1.251 4278190080
0.1236519 0.54608864 1.248 4278190080
0.12708168 0.54533744 1.25 4278190080
0.17864445 0.54652613 1.249 4278190080
0.18158226 0.54565102 1.247 4278190080
0.21382083 0.54240364 1.247 4278190080
0.10913032 0.55096102 1.248 4278190080
0.11724597 0.55118501 1.2485 4278190080
0.12071495 0.55391699 1.251 4278190080
0.17191069 0.55214584 1.247 4278190080
0.18216473 0.55065912 1.251 4278190080
0.18480612 0.55214584 1.247 4278190080
0.199715 0.55325282 1.2495 4278190080
0.20398556 0.55170304 1.2460001 4278190080
0.10098581 0.55539322 1.247 4278190080
0.17246214 0.55717474 1.251 4278190080
0.17850143 0.55908865 1.248 4278190080
0.1878792 0.55494785 1.2460001 4278190080
0.19817717 0.55672938 1.25 4278190080
0.20414928 0.55539322 1.247 4278190080
0.07220196 0.56369042 1.251 4278190080
0.081773609 0.56604177 1.249 4278190080
0.085002638 0.56604177 1.249 4278190080
0.091387466 0.56233865 1.248 4278190080
0.098075554 0.56043261 1.251 4278190080
0.12345374 0.56468225 1.2460001 4278190080
0.12687835 0.56233865 1.248 4278190080
0.13311757 0.56143743 1.2460001 4278190080
0.15901525 0.56188804 1.247 4278190080
0.16868682 0.56513542 1.247 4278190080
0.17569633 0.56043261 1.251 4278190080
0.18664423 0.5625639 1.2485 4278190080
0.086545222 0.57046103 1.248 4278190080
0.11748075 0.57020605 1.251 4278190080
0.16586104 0.566495 1.25 4278190080
0.059123039 0.57696104 1.248 4278190080
0.071913384 0.57441658 1.2460001 4278190080
0.091533922 0.57626063 1.25 4278190080
0.10429324 0.57371229 1.2479999 4278190080
0.06229952 0.58137238 1.247 4278190080
0.093687467 0.58168679 1.25 4278190080
0.099413082 0.58160549 1.2474999 4278190080
0.10425146 0.57998049 1.2474999 4278190080
0.1332244 0.57974869 1.247 4278190080
0.001048736 0.58928144 1.25 4278190080
0.075375855 0.58928144 1.25 4278190080
0.088231668 0.5855574 1.249 4278190080
0.094613917 0.58833861 1.248 4278190080
0.1010668 0.58508861 1.248 4278190080
0.10739045 0.58600909 1.2465 4278190080
0.1170112 0.58739579 1.2460001 4278190080
0.10122877 0.59579188 1.25 4278190080
0.10437681 0.59206265 1.249 4278190080
0.10734738 0.5906406 1.2460001 4278190080
0.11397257 0.59158862 1.248 4278190080
0.039700653 0.60037494 1.2460001 4278190080
0.042921927 0.60037494 1.2460001 4278190080
0.051095255 0.60019153 1.2490001 4278190080
0.065628469 0.6001941 1.249 4278190080
0.078355923 0.59713012 1.2460001 4278190080
0.0042803497 0.6055575 1.25 4278190080
0.03331149 0.60783863 1.248 4278190080
-0.056983225 0.61059898 1.247 4278190080
0.013975191 0.61206788 1.25 4278190080
0.030085048 0.61271101 1.248 4278190080
-0.060351927 0.61532313 1.25 4278190080
-0.026419982 0.61857831 1.25 4278190080
-0.0021820045 0.61670589 1.2495 4278190080
0.010752172 0.61907321 1.251 4278190080
0.03013326 0.61857831 1.25 4278190080
-0.044193856 0.62508875 1.25 4278190080
-0.040896703 0.62408859 1.248 4278190080
-0.031217374 0.62083858 1.248 4278190080
-0.02156393 0.6232124 1.2495 4278190080
-0.0021811314 0.62133604 1.249 4278190080
0.010726388 0.62408859 1.248 4278190080
0.026880125 0.62133604 1.249 4278190080
0.033338182 0.62295973 1.2490001 4278190080
0.036625765 0.62233102 1.251 4278190080
-0.13123712 0.63058865 1.248 4278190080
-0.027946075 0.6263333 1.2460001 4278190080
-0.0038008508 0.63022292 1.2505 4278190080
0.017179275 0.63058865 1.248 4278190080
-0.06020708 0.6430729 1.247 4278190080
-0.047387525 0.64085174 1.249 4278190080
-0.015097245 0.64085174 1.249 4278190080
-0.063481808 0.64683867 1.248 4278190080
-0.028035788 0.64462 1.25 4278190080
-0.018355621 0.64513576 1.251 4278190080
-0.11205775 0.65113044 1.25 4278190080
-0.073337004 0.65165138 1.251 4278190080
-0.024764489 0.65333867 1.248 4278190080
-0.0021828779 0.65438563 1.25 4278190080
0.0010453801 0.65229166 1.2460001 4278190080
-0.076571204 0.658167 1.251 4278190080
-0.057028919 0.65983868 1.248 4278190080
-0.044123147 0.65658867 1.248 4278190080
-0.040896703 0.65658867 1.248 4278190080
-0.018340947 0.65764081 1.25 4278190080
-0.12806195 0.66497797 1.2485 4278190080
-0.11022042 0.66444802 1.2474999 4278190080
-0.10228101 0.66687256 1.249 4278190080
-0.098972678 0.66633868 1.248 4278190080
-0.086066917 0.66308868 1.248 4278190080
-0.031267401 0.66415125 1.25 4278190080
-0.16376357 0.67066169 1.25 4278190080
-0.1602751 0.67121494 1.2479999 4278190080
-0.13769001 0.67283869 1.248 4278190080
-0.1310268 0.67176038 1.2460001 4278190080
-0.1181417 0.66851556 1.2460001 4278190080
-0.1102217 0.67094541 1.2474999 4278190080
-0.105679 0.66794044 1.251 4278190080
-0.073337004 0.67119825 1.251 4278190080
-0.069878653 0.66905212 1.247 4278190080
-0.050596301 0.66985041 1.2485001 4278190080
-0.0441585 0.67337775 1.249 4278190080
-0.19867353 0.6750052 1.2460001 4278190080
-0.19576597 0.67933869 1.248 4278190080
-0.14080353 0.67554688 1.247 4278190080
-0.13123712 0.67933869 1.248 4278190080
-0.11501266 0.67879426 1.247 4278190080
-0.098814078 0.67824996 1.2460001 4278190080
-0.045757927 0.67635298 1.2485001 4278190080
-0.040896703 0.67933869 1.248 4278190080
-0.16001825 0.68473959 1.2460001 4278190080
-0.14448939 0.68422949 1.251 4278190080
-0.13467905 0.6836825 1.25 4278190080
-0.10882613 0.68042731 1.25 4278190080
-0.066868603 0.68422949 1.251 4278190080
-0.063430935 0.6820417 1.247 4278190080
-0.16363254 0.68638813 1.249 4278190080
-0.15711159 0.68773711 1.2485 4278190080
-0.15239388 0.68991685 1.2495 4278190080
-0.14760549 0.68693769 1.25 4278190080
-0.13780032 0.68638813 1.249 4278190080
-0.22193262 0.69670331 1.25 4278190080
-0.16363254 0.69289333 1.249 4278190080
-0.15829192 0.69524759 1.2493334 4278190080
-0.15183473 0.69524759 1.2493334 4278190080
-0.22821312 0.70265114 1.249 4278190080
-0.21172839 0.70152605 1.247 4278190080
-0.20560993 0.69939858 1.249 4278190080
-0.18608665 0.69883859 1.248 4278190080
-0.18315324 0.70321375 1.25 4278190080
-0.15369895 0.69827867 1.247 4278190080
-0.10203534 0.69771874 1.2460001 4278190080
-0.21172839 0.70477343 1.247 4278190080
-0.17948981 0.70477343 1.247 4278190080
-0.17318086 0.7053386 1.248 4278190080
-0.25223002 0.7118386 1.2479999 4278190080
-0.24416262 0.71508867 1.248 4278190080
-0.20917338 0.71354985 1.251 4278190080
-0.23656882 0.71814871 1.2505 4278190080
-0.20900616 0.71948981 1.25 4278190080
-0.20668454 0.71891165 1.249 4278190080
-0.1504751 0.72101045 1.247 4278190080
-0.29255927 0.72483861 1.248 4278190080
-0.29002833 0.7265811 1.251 4278190080
-0.26954153 0.72692186 1.2460001 4278190080
-0.26696146 0.7254194 1.249 4278190080
-0.25987771 0.72367704 1.2460001 4278190080
-0.23780498 0.72350013 1.2485001 4278190080
-0.20833735 0.72367704 1.2460001 4278190080
-0.18139219 0.7254194 1.249 4278190080
-0.15221028 0.72321236 1.2479999 4278190080
-0.29925174 0.73192459 1.249 4278190080
-0.29399538 0.72927535 1.24725 4278190080
-0.27965352 0.73133862 1.248 4278190080
-0.27147922 0.72942066 1.2474999 4278190080
-0.26545513 0.73058879 1.2495 4278190080
-0.23107155 0.73075259 1.247 4278190080
-0.22193262 0.72925544 1.25 4278190080
-0.21800117 0.73016667 1.2460001 4278190080
-0.17992164 0.73251063 1.25 4278190080
-0.30223861 0.73783863 1.248 4278190080
-0.28783554 0.73488295 1.2485 4278190080
-0.2671752 0.73576581 1.25 4278190080
-0.18777572 0.73650789 1.2485 4278190080
-0.17963377 0.73783863 1.248 4278190080
-0.32883874 0.74287015 1.251 4278190080
-0.30522028 0.74049479 1.247 4278190080
-0.30175427 0.74314582 1.2460001 4278190080
-0.29531172 0.73990107 1.2460001 4278190080
-0.28242663 0.74314582 1.2460001 4278190080
-0.28333327 0.74878669 1.25 4278190080
-0.25061551 0.75083864 1.248 4278190080
-0.24699262 0.74963534 1.2460001 4278190080
-0.30522028 0.75673181 1.247 4278190080
-0.25363854 0.75348437 1.247 4278190080
-0.24377136 0.75288016 1.2460001 4278190080
-0.31166798 0.75997913 1.247 4278190080
-0.29625973 0.75855231 1.25 4278190080
-0.26674771 0.76058865 1.248 4278190080
-0.25665644 0.75936973 1.2460001 4278190080
-0.25121796 0.75915915 1.251 4278190080
-0.24798375 0.75915915 1.251 4278190080
-0.36412361 0.76831794 1.25 4278190080
-0.33827072 0.76831794 1.25 4278190080
-0.26674771 0.76383865 1.248 4278190080
-0.26071197 0.76831794 1.25 4278190080
-0.39482266 0.77157319 1.25 4278190080
-0.36764914 0.77219045 1.251 4278190080
-0.36118072 0.76893264 1.251 4278190080
-0.35329464 0.77234894 1.2460001 4278190080
-0.35063526 0.77358866 1.248 4278190080
-0.33154204 0.77420843 1.249 4278190080
-0.36735523 0.77482831 1.25 4278190080
-0.34685209 0.77883852 1.2460001 4278190080
-0.34122911 0.78071368 1.249 4278190080
-0.3363851 0.77729863 1.2470001 4278190080
0.93548054 0.14715938 1.255 4278190080
0.94121897 0.14704213 1.2539999 4278190080
0.95895582 0.14400582 1.256 4278190080
0.96143687 0.14552397 1.255 4278190080
0.89871508 0.15187803 1.2535 4278190080
0.93722904 0.15997696 1.253 4278190080
0.91706038 0.16637012 1.252 4278190080
0.92029715 0.16310969 1.252 4278190080
0.92500919 0.16337025 1.2539999 4278190080
0.93047184 0.16376109 1.257 4278190080
0.91024894 0.17017248 1.256 4278190080
0.91548324 0.16696811 1.2565 4278190080
0.88124025 0.17643276 1.2539999 4278190080
0.88792926 0.17615137 1.252 4278190080
0.89440286 0.17615137 1.252 4278190080
0.90735006 0.17289096 1.252 4278190080
0.87707877 0.1798417 1.255 4278190080
0.88469255 0.1826722 1.252 4278190080
0.90267533 0.18140024 1.2544999 4278190080
0.9080748 0.17955509 1.253 4278190080
0.88539922 0.18934414 1.253 4278190080
0.89330155 0.18637814 1.255 4278190080
0.89979053 0.18964638 1.255 4278190080
0.90159601 0.18608113 1.253 4278190080
0.91097361 0.18994859 1.257 4278190080
0.86178857 0.19602652 1.2539999 4278190080
0.86596298 0.19587019 1.253 4278190080
0.8777777 0.19470374 1.256 4278190080
0.89330155 0.19618282 1.255 4278190080
0.89583158 0.1960265 1.2539999 4278190080
0.90087646 0.19245344 1.252 4278190080
0.90627962 0.19291461 1.255 4278190080
0.85667002 0.19960999 1.256 4278190080
0.82841069 0.20598753 1.255 4278190080
0.8381443 0.20598753 1.255 4278190080
0.84272969 0.20631579 1.257 4278190080
0.87174541 0.20549512 1.252 4278190080
0.8511225 0.20925575 1.255 4278190080
0.87197703 0.20958921 1.257 4278190080
0.87637991 0.209089 1.2539999 4278190080
0.81348324 0.21853679 1.252 4278190080
0.83661753 0.21785553 1.2543333 4278190080
0.77787864 0.22505762 1.252 4278190080
0.83248949 0.2241497 1.253 4278190080
0.83859396 0.2236495 1.25325 4278190080
0.74886209 0.22977044 1.2539999 4278190080
0.77263737 0.23194838 1.2539999 4278190080
0.77780962 0.22877395 1.2544999 4278190080
0.78423488 0.22922985 1.257 4278190080
0.84071839 0.22868276 1.2539999 4278190080
0.85180068 0.22904749 1.256 4278190080
0.74848807 0.23250329 1.257 4278190080
0.7661534 0.23521054 1.2540001 4278190080
0.77202123 0.23828948 1.253 4278190080
0.77787864 0.23809928 1.252 4278190080
0.78111547 0.23809928 1.252 4278190080
0.79793614 0.23502643 1.253 4278190080
0.80373317 0.23250329 1.257 4278190080
0.76412833 0.24213083 1.256 4278190080
0.77587926 0.24011114 1.2539999 4278190080
0.793984 0.23905016 1.257 4278190080
0.65372604 0.2486725 1.256 4278190080
0.74227399 0.24788053 1.252 4278190080
0.74874753 0.24462013 1.252 4278190080
0.75959682 0.24642594 1.2556667 4278190080
0.77649808 0.246843 1.255 4278190080
0.78361106 0.24540167 1.256 4278190080
0.7868582 0.24540167 1.256 4278190080
0.71637976 0.25440136 1.252 4278190080
0.73638821 0.25134155 1.253 4278190080
0.77680743 0.25347584 1.2555 4278190080
0.81413305 0.25460458 1.253 4278190080
0.7018736 0.25827917 1.255 4278190080
0.71485174 0.25827917 1.255 4278190080
0.76088119 0.26175582 1.256 4278190080
0.7649315 0.26092219 1.252 4278190080
0.77912128 0.26133901 1.2539999 4278190080
0.78423488 0.2586908 1.257 4278190080
0.69807237 0.26787025 1.2539999 4278190080
0.67213678 0.2711359 1.2539999 4278190080
0.68024415 0.27178454 1.257 4278190080
0.72840995 0.26829749 1.256 4278190080
0.72990942 0.27418271 1.253 4278190080
0.7649315 0.27722427 1.252 4278190080
0.77448577 0.27505797 1.257 4278190080
0.67537874 0.28419837 1.2539999 4278190080
0.68024415 0.28487828 1.257 4278190080
0.76615345 0.28419837 1.2539999 4278190080
0.77255416 0.28312826 1.2565 4278190080
0.68024415 0.28815171 1.257 4278190080
0.33821541 0.29399526 1.2539999 4278190080
0.24400398 0.43733376 1.253 4278190080
0.25453204 0.46819079 1.257 4278190080
0.25028279 0.47284928 1.252 4278190080
0.25270471 0.47272331 1.256 4278190080
0.25028279 0.48263052 1.252 4278190080
0.24763799 0.49032345 1.255 4278190080
0.23428586 0.50259417 1.253 4278190080
0.20059474 0.51156437 1.255 4278190080
0.23409888 0.5087139 1.252 4278190080
0.20205329 0.51605779 1.2539999 4278190080
0.20545895 0.51320106 1.255 4278190080
0.21690059 0.51340556 1.2555001 4278190080
0.22168167 0.51320106 1.255 4278190080
0.23447283 0.51279217 1.2539999 4278190080
0.24380924 0.51849514 1.252 4278190080
0.17435624 0.52706814 1.253 4278190080
0.17964567 0.52669334 1.256 4278190080
0.18753989 0.52769715 1.2544999 4278190080
0.19556938 0.52585465 1.2539999 4278190080
0.20005314 0.52845198 1.255 4278190080
0.20683309 0.52727783 1.2535 4278190080
0.21177915 0.52585465 1.2539999 4278190080
0.15861642 0.53385192 1.2523333 4278190080
0.16490221 0.53281045 1.255 4278190080
0.16976902 0.53281045 1.255 4278190080
0.20051417 0.5342297 1.2545 4278190080
0.2052134 0.53380644 1.2535 4278190080
0.22168167 0.53607869 1.255 4278190080
0.15853935 0.53977668 1.256 4278190080
0.16341005 0.53977668 1.256 4278190080
0.19217408 0.53848737 1.253 4278190080
0.20578638 0.54020643 1.257 4278190080
0.21817604 0.54033375 1.2535 4278190080
0.22396244 0.53854227 1.2556666 4278190080
0.12090793 0.54827648 1.253 4278190080
0.13397226 0.5438143 1.2539999 4278190080
0.17003956 0.54347986 1.257 4278190080
0.19371578 0.54479599 1.2525001 4278190080
0.20237555 0.54304755 1.256 4278190080
0.10471108 0.55153948 1.253 4278190080
0.11118982 0.55153948 1.253 4278190080
0.11452051 0.5519796 1.2539999 4278190080
0.17639855 0.55122328 1.256 4278190080
0.17978869 0.5533002 1.257 4278190080
0.10171467 0.55613083 1.256 4278190080
0.11442919 0.55643535 1.253 4278190080
0.16976902 0.55568808 1.255 4278190080
0.1762581 0.55731958 1.255 4278190080
0.18554711 0.55762011 1.252 4278190080
0.20221442 0.55895633 1.255 4278190080
0.075677358 0.56222451 1.255 4278190080
0.082035497 0.56459159 1.253 4278190080
0.088443592 0.56414098 1.252 4278190080
0.11442919 0.56296134 1.253 4278190080
0.13052177 0.56414098 1.252 4278190080
0.13883258 0.56177652 1.2539999 4278190080
0.1452045 0.56132853 1.253 4278190080
0.15192404 0.56222451 1.255 4278190080
0.1569158 0.56267256 1.256 4278190080
0.17273784 0.56459159 1.253 4278190080
0.17328927 0.56312048 1.257 4278190080
0.18303841 0.56312048 1.257 4278190080
0.18738911 0.56155252 1.2535 4278190080
0.05629969 0.56639391 1.257 4278190080
0.073906913 0.56925821 1.2525001 4278190080
0.078796126 0.57111758 1.253 4278190080
0.10961192 0.56971526 1.2535 4278190080
0.12081144 0.56740135 1.252 4278190080
0.067458332 0.57438064 1.253 4278190080
0.073993489 0.5764693 1.2539999 4278190080
0.11470316 0.57575589 1.256 4278190080
0.065786101 0.58370346 1.252 4278190080
0.075556755 0.58090669 1.253 4278190080
0.088796802 0.57948768 1.257 4278190080
0.09168037 0.58044308 1.252 4278190080
0.11479449 0.57948768 1.257 4278190080
0.059454657 0.58510214 1.255 4278190080
0.075797953 0.58603454 1.257 4278190080
0.078796126 0.58743274 1.253 4278190080
0.08858487 0.58463591 1.2539999 4278190080
0.09168037 0.58696389 1.252 4278190080
0.098389141 0.58837038 1.255 4278190080
0.10961451 0.58603561 1.2535 4278190080
0.11479449 0.58603454 1.257 4278190080
-0.0021951019 0.59258145 1.257 4278190080
0.069078021 0.5939588 1.253 4278190080
0.098310746 0.5927974 1.2539999 4278190080
0.1015527 0.59280127 1.2539999 4278190080
0.11110108 0.59022433 1.252 4278190080
0.11452051 0.59116715 1.2539999 4278190080
0.027009251 0.60144323 1.255 4278190080
0.03347164 0.60096401 1.2539999 4278190080
0.046457976 0.59956956 1.2544999 4278190080
0.065786101 0.59674513 1.252 4278190080
0.010760767 0.60652637 1.252 4278190080
0.036713596 0.60422963 1.2539999 4278190080
0.043300848 0.60240173 1.257 4278190080
0.062649235 0.60749525 1.2539999 4278190080
-0.057257399 0.6102739 1.253 4278190080
-0.002189863 0.61076087 1.2539999 4278190080
0.014053452 0.61222202 1.257 4278190080
0.033551715 0.60894865 1.257 4278190080
0.059454657 0.60797971 1.255 4278190080
-0.063837871 0.6145162 1.255 4278190080
-0.057348792 0.61778444 1.255 4278190080
0.013997551 0.61630762 1.252 4278190080
0.027030775 0.61827672 1.256 4278190080
-0.044405989 0.62481838 1.256 4278190080
0.010777957 0.6238234 1.2539999 4278190080
0.023745775 0.6238234 1.2539999 4278190080
0.027009251 0.62105268 1.255 4278190080
0.030181473 0.62282848 1.252 4278190080
-0.041060552 0.629852 1.253 4278190080
-0.0054404815 0.62808919 1.256 4278190080
0.014031092 0.63085735 1.255 4278190080
0.020536523 0.62808919 1.256 4278190080
0.036684319 0.626589 1.253 4278190080
-0.12852353 0.63311505 1.253 4278190080
-0.057257399 0.6429041 1.253 4278190080
-0.0038134595 0.63928056 1.2555 4278190080
-0.063939609 0.6482299 1.257 4278190080
-0.044441342 0.64495647 1.257 4278190080
-0.034692209 0.64495647 1.257 4278190080
-0.018406972 0.64693415 1.2544999 4278190080
-0.1093485 0.65098506 1.256 4278190080
-0.10593241 0.65321404 1.2539999 4278190080
-0.024923235 0.65098506 1.256 4278190080
-0.11232669 0.65595615 1.253 4278190080
-0.10593241 0.65647966 1.2539999 4278190080
-0.020033995 0.65863466 1.255 4278190080
-0.10422955 0.66411495 1.253 4278190080
-0.097869769 0.66490543 1.2544999 4278190080
-0.079869196 0.66195345 1.252 4278190080
-0.044335276 0.6630109 1.2539999 4278190080
-0.039491314 0.66327524 1.2544999 4278190080
-0.16752955 0.66954213 1.2539999 4278190080
-0.16285926 0.67034304 1.2555 4278190080
-0.13301967 0.67207432 1.2546667 4278190080
-0.12872867 0.67334437 1.255 4278190080
-0.10593241 0.67280775 1.2539999 4278190080
-0.096359998 0.67061007 1.256 4278190080
-0.089579545 0.66847432 1.252 4278190080
-0.050778665 0.67227131 1.253 4278190080
-0.041027781 0.67173469 1.252 4278190080
-0.031317431 0.66847432 1.252 4278190080
-0.19840786 0.67797577 1.2544999 4278190080
-0.16454963 0.67715174 1.256 4278190080
-0.1607888 0.67825556 1.252 4278190080
-0.11584275 0.67715174 1.256 4278190080
-0.11016796 0.67770958 1.2529999 4278190080
-0.089829966 0.67524672 1.2555001 4278190080
-0.19978967 0.68206036 1.253 4278190080
-0.16117409 0.68314898 1.255 4278190080
-0.15888262 0.68477917 1.2540001 4278190080
-0.12528417 0.68532336 1.253 4278190080
-0.096053109 0.68151599 1.252 4278190080
-0.17556636 0.68886113 1.2535 4278190080
-0.16901566 0.68858635 1.253 4278190080
-0.16441862 0.68641722 1.255 4278190080
-0.1528201 0.68858635 1.253 4278190080
-0.13207838 0.68696427 1.256 4278190080
-0.12862611 0.68750054 1.2539999 4278190080
-0.066975512 0.68858635 1.253 4278190080
-0.22606488 0.69622195 1.255 4278190080
-0.18049738 0.69240153 1.2539999 4278190080
-0.17570254 0.69267768 1.2545 4278190080
-0.16928673 0.69295371 1.255 4278190080
-0.15431523 0.69455767 1.252 4278190080
-0.13370064 0.69350588 1.256 4278190080
-0.23598641 0.70004755 1.256 4278190080
-0.22228771 0.70107847 1.252 4278190080
-0.19485347 0.69809675 1.2525001 4278190080
-0.18713039 0.69949013 1.255 4278190080
-0.1841789 0.69733143 1.257 4278190080
-0.15917042 0.70107847 1.252 4278190080
-0.23598641 0.70331842 1.256 4278190080
-0.23199806 0.70433891 1.252 4278190080
-0.22606488 0.70602661 1.255 4278190080
-0.1841789 0.70387828 1.257 4278190080
-0.17739677 0.70929486 1.255 4278190080
-0.2583043 0.72015679 1.2539999 4278190080
-0.24228758 0.71909952 1.255 4278190080
-0.23056239 0.71795356 1.253 4278190080
-0.21795483 0.71909952 1.255 4278190080
-0.21154675 0.71938598 1.2555 4278190080
-0.26154625 0.72505772 1.2539999 4278190080
-0.23617429 0.72351891 1.257 4278190080
-0.22570463 0.72121656 1.253 4278190080
-0.30092889 0.7327559 1.256 4278190080
-0.29095569 0.73217249 1.255 4278190080
-0.27083948 0.72716177 1.252 4278190080
-0.26447147 0.72908247 1.2525001 4278190080
-0.23579851 0.73217249 1.255 4278190080
-0.21957581 0.73217249 1.255 4278190080
-0.21257734 0.72716177 1.252 4278190080
-0.18204768 0.73129737 1.2535 4278190080
-0.33177531 0.73766083 1.256 4278190080
-0.30369166 0.7348547 1.2539999 4278190080
-0.27842051 0.73333931 1.257 4278190080
-0.26803017 0.7348547 1.2539999 4278190080
-0.22642514 0.73333931 1.257 4278190080
-0.21615888 0.7348547 1.2539999 4278190080
-0.21308672 0.73544073 1.255 4278190080
-0.18727951 0.73602676 1.256 4278190080
-0.1802095 0.73694307 1.252 4278190080
-0.33260381 0.74079472 1.253 4278190080
-0.32638535 0.74465156 1.2539999 4278190080
-0.30692846 0.74138069 1.2539999 4278190080
-0.29026017 0.74346387 1.252 4278190080
-0.18344629 0.7402035 1.252 4278190080
-0.30968088 0.74998474 1.252 4278190080
-0.30092889 0.74911004 1.256 4278190080
-0.29420024 0.74524534 1.255 4278190080
-0.28748187 0.74791718 1.2539999 4278190080
-0.31091762 0.7562533 1.257 4278190080
-0.30668887 0.75384676 1.253 4278190080
-0.30320731 0.75650555 1.252 4278190080
-0.28446659 0.75505006 1.255 4278190080
-0.31067029 0.75892258 1.256 4278190080
-0.30830723 0.75874001 1.253 4278190080
-0.28469327 0.76219344 1.256 4278190080
-0.25161958 0.75710988 1.253 4278190080
-0.24838021 0.75710988 1.253 4278190080
-0.32262802 0.76628685 1.252 4278190080
-0.26457706 0.76363587 1.253 4278190080
-0.26154625 0.76587939 1.2539999 4278190080
-0.36853075 0.77077651 1.2539999 4278190080
-0.35823262 0.77280766 1.252 4278190080
-0.3455613 0.77016193 1.253 4278190080
-0.33637923 0.77465945 1.255 4278190080
-0.32664564 0.77139121 1.255 4278190080
-0.26542166 0.7726205 1.257 4278190080
-0.3973912 0.77668792 1.253 4278190080
-0.34963581 0.77527672 1.256 4278190080
-0.33584321 0.77668792 1.253 4278190080
-0.3319093 0.77558529 1.2565 4278190080
-0.39687768 0.78540176 1.2565 4278190080
-0.37147626 0.78321397 1.253 4278190080
0.94069833 0.10854269 1.262 4278190080
0.94422132 0.13768305 1.258 4278190080
0.94985294 0.1377925 1.2590001 4278190080
0.96103507 0.14151932 1.263 4278190080
0.93817848 0.14809746 1.263 4278190080
0.9383229 0.1511468 1.261 4278190080
0.94897997 0.15102693 1.26 4278190080
0.89218456 0.1573393 1.258 4278190080
0.90194154 0.1573393 1.258 4278190080
0.92438513 0.15783957 1.262 4278190080
0.94722354 0.15783957 1.262 4278190080
0.92365271 0.16428222 1.261 4278190080
0.92838281 0.16125372 1.263 4278190080
0.86359978 0.1673003 1.2589999 4278190080
0.86634368 0.1711209 1.263 4278190080
0.91532195 0.16783184 1.263 4278190080
0.88127202 0.17741764 1.261 4278190080
0.89246535 0.17440996 1.263 4278190080
0.90265834 0.17713624 1.2589999 4278190080
0.90897977 0.17741764 1.2609999 4278190080
0.87870818 0.18413123 1.262 4278190080
0.90916812 0.18041487 1.2589999 4278190080
0.91332698 0.18420419 1.2625 4278190080
0.8759231 0.18682368 1.258 4278190080
0.8773157 0.19040193 1.26 4278190080
0.88893229 0.18682368 1.258 4278190080
0.89466679 0.18898669 1.2615 4278190080
0.90735239 0.19055307 1.261 4278190080
0.42060164 0.19665179 1.258 4278190080
0.86960888 0.19414434 1.263 4278190080
0.89360297 0.19368318 1.26 4278190080
0.9028182 0.19226924 1.2615 4278190080
0.41768107 0.19680811 1.2589999 4278190080
0.85586971 0.20056352 1.262 4278190080
0.86042333 0.19719891 1.2615 4278190080
0.87336445 0.19680811 1.2589999 4278190080
0.87940454 0.19743341 1.263 4278190080
0.84929204 0.20672612 1.2595 4278190080
0.85981321 0.20401153 1.263 4278190080
0.8662588 0.20524962 1.2605 4278190080
0.82389575 0.21387871 1.263 4278190080
0.83138108 0.211648 1.2595 4278190080
0.86102486 0.21227433 1.26 4278190080
0.87940454 0.21387871 1.263 4278190080
0.81607097 0.22010775 1.261 4278190080
0.74908358 0.22613616 1.258 4278190080
0.81152171 0.22303729 1.2589999 4278190080
0.65736938 0.23032403 1.263 4278190080
0.74760985 0.22995931 1.261 4278190080
0.77827096 0.2282275 1.2605 4278190080
0.78673053 0.22667545 1.261 4278190080
0.81152171 0.22959457 1.2589999 4278190080
0.75412995 0.23652703 1.261 4278190080
0.75829101 0.23516384 1.2625 4278190080
0.76838696 0.23690216 1.263 4278190080
0.77928227 0.23460503 1.2595 4278190080
0.78331369 0.23505986 1.2589999 4278190080
0.78797829 0.23361309 1.263 4278190080
0.79786801 0.2359643 1.258 4278190080
0.80040491 0.23342812 1.262 4278190080
0.3762621 0.24000104 1.262 4278190080
0.75739008 0.24309473 1.261 4278190080
0.78961283 0.24155201 1.2586666 4278190080
0.75086993 0.24637859 1.261 4278190080
0.78284913 0.2461832 1.26 4278190080
0.78797829 0.25005841 1.263 4278190080
0.72593904 0.25334749 1.263 4278190080
0.73607433 0.25234452 1.258 4278190080
0.76269847 0.25254509 1.2589999 4278190080
0.76595086 0.25473174 1.2589999 4278190080
0.36676458 0.25663653 1.263 4278190080
0.70085579 0.25910237 1.2589999 4278190080
0.768188 0.25930819 1.26 4278190080
0.78284913 0.25930819 1.26 4278190080
0.67046523 0.26587069 1.26 4278190080
0.70575571 0.26368406 1.2599999 4278190080
0.70961291 0.26650372 1.263 4278190080
0.71798456 0.26433685 1.2605 4278190080
0.76595336 0.26238102 1.2589999 4278190080
0.66258568 0.27089804 1.2605 4278190080
0.67316204 0.26957914 1.262 4278190080
0.67724693 0.27089676 1.2605 4278190080
0.69652367 0.27243319 1.26 4278190080
0.69981724 0.26979277 1.263 4278190080
0.71713012 0.26893833 1.2589999 4278190080
0.7324695 0.27308184 1.263 4278190080
0.73596454 0.2701762 1.2596666 4278190080
0.66127157 0.27855286 1.258 4278190080
0.66337419 0.27615207 1.262 4278190080
0.66936868 0.27921712 1.261 4278190080
0.7762419 0.27954924 1.2625 4278190080
0.77104121 0.28272501 1.262 4278190080
0.67753309 0.28838095 1.258 4278190080
0.33657619 0.2986832 1.26 4278190080
0.27816239 0.37116507 1.261 4278190080
0.24882191 0.4696807 1.261 4278190080
0.24842727 0.47221437 1.2589999 4278190080
0.25473455 0.47183931 1.258 4278190080
0.25248179 0.4802928 1.263 4278190080
0.25208196 0.4828161 1.261 4278190080
0.24862459 0.4889957 1.26 4278190080
0.20023821 0.50002718 1.263 4278190080
0.24595132 0.49673811 1.263 4278190080
0.20007968 0.50291771 1.262 4278190080
0.20350344 0.50331622 1.263 4278190080
0.23215285 0.50500083 1.2589999 4278190080
0.23885219 0.50212067 1.26 4278190080
0.22962523 0.50660533 1.263 4278190080
0.23261385 0.51093072 1.2615 4278190080
0.19984186 0.51544625 1.2605 4278190080
0.21313022 0.51606351 1.262 4278190080
0.21810992 0.51298022 1.2625 4278190080
0.22582233 0.51524574 1.26 4278190080
0.23089033 0.51565462 1.2609999 4278190080
0.21656434 0.51976156 1.263 4278190080
0.15415806 0.52672875 1.26 4278190080
0.1576654 0.52756488 1.2620001 4278190080
0.17547333 0.5271455 1.2609999 4278190080
0.18248565 0.52645928 1.2606667 4278190080
0.18673272 0.52837068 1.26 4278190080
0.20456564 0.52816105 1.2595 4278190080
0.21604992 0.52508944 1.26 4278190080
0.15754046 0.53371322 1.2609999 4278190080
0.17058067 0.53207392 1.261 4278190080
0.15415806 0.53985381 1.26 4278190080
0.16692255 0.54063618 1.258 4278190080
0.19619322 0.54063618 1.258 4278190080
0.20302007 0.53821445 1.26 4278190080
0.127895 0.54391223 1.258 4278190080
0.138199 0.54607409 1.263 4278190080
0.15428041 0.54520935 1.261 4278190080
0.19309428 0.5443446 1.2589999 4278190080
0.20023821 0.54278499 1.263 4278190080
0.20350344 0.54278499 1.263 4278190080
0.11832592 0.55133945 1.26 4278190080
0.1251381 0.54936308 1.263 4278190080
0.127895 0.55374038 1.258 4278190080
0.13304053 0.55155826 1.2605 4278190080
0.13798015 0.54849321 1.261 4278190080
0.14659636 0.55039072 1.2603333 4278190080
0.15102036 0.54849321 1.261 4278190080
0.17363393 0.55111682 1.2595 4278190080
0.12474177 0.55745918 1.2589999 4278190080
0.18191674 0.55812335 1.2605 4278190080
0.072894536 0.56580842 1.263 4278190080
0.080900386 0.56468844 1.2605 4278190080
0.095599473 0.5649125 1.261 4278190080
0.11823201 0.56073779 1.2589999 4278190080
0.12799665 0.56401646 1.2589999 4278190080
0.13298583 0.56446445 1.26 4278190080
0.14613029 0.56162864 1.261 4278190080
0.16092803 0.56536043 1.262 4278190080
0.1704454 0.56118321 1.26 4278190080
0.18191805 0.5614059 1.2605 4278190080
0.053155493 0.56916237 1.2595 4278190080
0.085683197 0.56729507 1.2589999 4278190080
0.11669719 0.57102698 1.26 4278190080
0.12464271 0.56684452 1.258 4278190080
0.16367026 0.56684452 1.258 4278190080
0.062849075 0.57667267 1.258 4278190080
0.075858258 0.57667267 1.258 4278190080
0.082428314 0.57385236 1.2589999 4278190080
0.11198846 0.57521981 1.262 4278190080
0.11497713 0.57385236 1.2589999 4278190080
0.10872583 0.58014953 1.262 4278190080
0.11488581 0.58322471 1.258 4278190080
0.069463924 0.58743322 1.26 4278190080
0.072663672 0.58696693 1.2589999 4278190080
0.080513388 0.58773547 1.263 4278190080
0.087554015 0.58695424 1.2625 4278190080
0.095372036 0.58977681 1.258 4278190080
0.11031278 0.58648932 1.2615 4278190080
0.11488581 0.58977681 1.258 4278190080
0.004318017 0.59446716 1.261 4278190080
0.046698693 0.59446716 1.261 4278190080
0.06299895 0.5911833 1.261 4278190080
0.074527144 0.5937655 1.263 4278190080
0.030398434 0.60103488 1.261 4278190080
0.044995897 0.59680295 1.2590001 4278190080
0.049938936 0.59915197 1.2605 4278190080
0.066311546 0.598225 1.262 4278190080
0.023859393 0.60383946 1.26 4278190080
0.038517993 0.60383946 1.26 4278190080
0.053134385 0.60336024 1.2589999 4278190080
0.056478851 0.60760254 1.261 4278190080
-0.063990474 0.61270911 1.258 4278190080
-0.0054578073 0.61368322 1.26 4278190080
0.0010596429 0.61185533 1.263 4278190080
0.0075900881 0.60856622 1.263 4278190080
0.06309887 0.60856622 1.263 4278190080
-0.0054578073 0.61696446 1.26 4278190080
0.017358225 0.61909342 1.2609999 4278190080
0.027073815 0.61598516 1.258 4278190080
0.030398434 0.61417025 1.261 4278190080
-0.064244807 0.62172252 1.263 4278190080
0.015725194 0.62377441 1.2605 4278190080
0.02223625 0.62212992 1.2605 4278190080
0.023859393 0.6202457 1.26 4278190080
-0.070691198 0.62919897 1.2615 4278190080
-0.03967759 0.62869763 1.2605 4278190080
-0.034802608 0.6305896 1.261 4278190080
0.014114942 0.62969643 1.2625 4278190080
0.020634627 0.62780315 1.262 4278190080
-0.1290364 0.63236541 1.258 4278190080
-0.044582766 0.63387346 1.261 4278190080
-0.03800229 0.63286805 1.2589999 4278190080
-0.031492528 0.63286805 1.2589999 4278190080
-0.02174514 0.63337076 1.26 4278190080
-0.0054664705 0.63766253 1.262 4278190080
0.017330693 0.63286805 1.2589999 4278190080
-0.050981291 0.6421935 1.258 4278190080
-0.041388251 0.63816786 1.263 4278190080
-0.025062136 0.63816786 1.263 4278190080
-0.011963238 0.64270395 1.2589999 4278190080
-0.0087083569 0.64270395 1.2589999 4278190080
-0.060883023 0.64700884 1.261 4278190080
-0.054406028 0.64423543 1.262 4278190080
-0.031517543 0.6464957 1.26 4278190080
-0.1131335 0.65409482 1.262 4278190080
-0.069035739 0.65357649 1.2609999 4278190080
-0.02501253 0.65331089 1.2605 4278190080
-0.021796916 0.65132409 1.263 4278190080
-0.10334559 0.66066772 1.262 4278190080
-0.077183284 0.66014427 1.261 4278190080
-0.020141002 0.65876406 1.2615 4278190080
-0.12618405 0.66724068 1.262 4278190080
-0.11956396 0.66671193 1.261 4278190080
-0.11611943 0.66565448 1.2589999 4278190080
-0.10969674 0.662902 1.26 4278190080
-0.10549166 0.66487348 1.2616667 4278190080
-0.083769761 0.66724068 1.262 4278190080
-0.17498484 0.67327964 1.261 4278190080
-0.17145242 0.67221177 1.2589999 4278190080
-0.12301881 0.66776943 1.263 4278190080
-0.10952263 0.66840184 1.258 4278190080
-0.047728997 0.66840184 1.258 4278190080
-0.038062658 0.67327964 1.261 4278190080
-0.034761205 0.67083812 1.2595 4278190080
-0.16806395 0.67495394 1.258 4278190080
-0.15855873 0.67766631 1.26 4278190080
-0.12588407 0.67549044 1.2589999 4278190080
-0.1226292 0.67549044 1.2589999 4278190080
-0.1032637 0.67656356 1.261 4278190080
-0.047918692 0.67763662 1.263 4278190080
-0.044653475 0.67763662 1.263 4278190080
-0.2043253 0.68313128 1.261 4278190080
-0.15830706 0.68150598 1.258 4278190080
-0.14249723 0.68038642 1.262 4278190080
-0.10554797 0.68275803 1.2623333 4278190080
-0.093261138 0.68150598 1.258 4278190080
-0.20464937 0.68750381 1.263 4278190080
-0.19919735 0.68887848 1.2595 4278190080
-0.19454516 0.68641508 1.261 4278190080
-0.15554778 0.69024587 1.262 4278190080
-0.14721665 0.68778479 1.2605 4278190080
-0.12924154 0.68587071 1.26 4278190080
-0.11975359 0.68750381 1.263 4278190080
-0.18476501 0.69626665 1.261 4278190080
-0.18121706 0.69188362 1.2589999 4278190080
-0.13597195 0.69353229 1.262 4278190080
-0.23548369 0.70010531 1.2620001 4278190080
-0.23058844 0.70010525 1.262 4278190080
-0.22424072 0.70066005 1.263 4278190080
-0.1909817 0.70171958 1.2589999 4278190080
-0.18476501 0.70283437 1.261 4278190080
-0.18121706 0.69844091 1.2589999 4278190080
-0.16873194 0.70066005 1.263 4278190080
-0.16481166 0.70116222 1.258 4278190080
-0.22353052 0.70827687 1.2589999 4278190080
-0.21034379 0.70443827 1.258 4278190080
-0.16520469 0.70611823 1.261 4278190080
-0.23058844 0.71325111 1.262 4278190080
-0.17172478 0.70940208 1.261 4278190080
-0.25995216 0.71982396 1.262 4278190080
-0.24937135 0.71754247 1.258 4278190080
-0.23961446 0.72081852 1.258 4278190080
-0.23520574 0.71896839 1.2605 4278190080
-0.23077117 0.72039437 1.263 4278190080
-0.223353 0.72081852 1.258 4278190080
-0.21436015 0.71846592 1.2625 4278190080
-0.2632148 0.72639686 1.262 4278190080
-0.22886837 0.72446847 1.2615 4278190080
-0.29886681 0.73238903 1.261 4278190080
-0.29432708 0.72997248 1.2625 4278190080
-0.27560863 0.7312274 1.2589999 4278190080
-0.26909885 0.72794873 1.2589999 4278190080
-0.26584399 0.72794873 1.2589999 4278190080
-0.22696555 0.72852695 1.26 4278190080
-0.31842715 0.73895675 1.261 4278190080
-0.30587128 0.73683965 1.263 4278190080
-0.29059818 0.73537469 1.2605 4278190080
-0.28514662 0.73719871 1.258 4278190080
-0.21444505 0.73683965 1.263 4278190080
-0.18461849 0.73837072 1.26 4278190080
-0.31766957 0.74047476 1.258 4278190080
-0.30815744 0.74434197 1.2589999 4278190080
-0.18772683 0.74106336 1.2589999 4278190080
-0.18447195 0.74106336 1.2589999 4278190080
-0.33419648 0.74762064 1.2589999 4278190080
-0.31842715 0.74552447 1.261 4278190080
-0.31454223 0.74896306 1.2585 4278190080
-0.30466038 0.75357896 1.258 4278190080
-0.28954515 0.75657403 1.263 4278190080
-0.30490255 0.7574566 1.2589999 4278190080
-0.28605327 0.76254797 1.262 4278190080
-0.3146672 0.76401383 1.2589999 4278190080
-0.28908667 0.76522762 1.261 4278190080
-0.40286875 0.77446449 1.26 4278190080
-0.31867963 0.76912081 1.262 4278190080
-0.40155846 0.77672112 1.261 4278190080
-0.39526713 0.77774316 1.2600001 4278190080
-0.36080784 0.77507913 1.261 4278190080
-0.35591644 0.77836299 1.2609999 4278190080
-0.33798742 0.77507913 1.261 4278190080
-0.39929408 0.78368574 1.2589999 4278190080
-0.37740713 0.7855531 1.262 4278190080
-0.37384802 0.78328615 1.2609999 4278190080
-0.44230911 0.78821456 1.261 4278190080
-0.41655877 0.78883964 1.262 4278190080
-0.376809 0.78758943 1.26 4278190080
0.94218922 0.14163138 1.2640001 4278190080
0.96833169 0.14163138 1.2640001 4278190080
0.97236806 0.14174344 1.265 4278190080
0.90583295 0.14868374 1.268 4278190080
0.94114977 0.14526701 1.267 4278190080
0.9462049 0.15162624 1.265 4278190080
0.95185983 0.15339194 1.266 4278190080
0.92258233 0.15808973 1.2640001 4278190080
0.92550182 0.15528791 1.268 4278190080
0.93279326 0.15871508 1.2690001 4278190080
0.94591624 0.15541039 1.2690001 4278190080
0.94919693 0.15871508 1.2690001 4278190080
0.92246455 0.16374867 1.2653333 4278190080
0.92731506 0.16163674 1.266 4278190080
0.93892139 0.16467306 1.2640001 4278190080
0.94367999 0.16163674 1.266 4278190080
0.86547017 0.16994536 1.2665 4278190080
0.87029743 0.16796473 1.2640001 4278190080
0.89201629 0.17496231 1.267 4278190080
0.89643985 0.17454806 1.2640001 4278190080
0.90184295 0.17496231 1.267 4278190080
0.91422313 0.17482424 1.266 4278190080
0.88010085 0.18113139 1.2640001 4278190080
0.9158597 0.18801174 1.266 4278190080
0.87201226 0.19468236 1.2665 4278190080
0.87977386 0.19360642 1.2666668 4278190080
0.90255487 0.19161084 1.268 4278190080
0.90654737 0.19506665 1.2690001 4278190080
0.91277891 0.19100639 1.2640001 4278190080
0.41771796 0.19837132 1.2690001 4278190080
