# .PCD v0.7 - Point Cloud Data file format
VERSION 0.7
FIELDS x y z
SIZE 4 4 4
TYPE F F F
COUNT 1 1 1
WIDTH 1057
HEIGHT 1
VIEWPOINT 0 0 0 1 0 0 0
POINTS 1057
DATA ascii
-0.025407262 0.1084765 0.86666662
-0.016413828 0.1074171 0.86900008
-0.025654174 0.11517607 0.86146361
-0.016069146 0.11504498 0.86805892
-0.034778617 0.12476408 0.86491424
-0.025588455 0.12506126 0.86202717
-0.016978404 0.12418298 0.86850005
-0.033563949 0.13450517 0.86845827
-0.025720572 0.1354233 0.86752939
-0.031742636 0.1414452 0.86900002
-0.028187463 0.14208005 0.86900002
-0.014705387 0.10404528 0.87337941
-0.0086446358 0.10565644 0.87546676
-0.011338223 0.11536875 0.87533349
-0.0085747447 0.11326493 0.87707704
-0.012926066 0.12547386 0.87406266
-0.02061657 0.13591664 0.87100011
-0.016697135 0.13461548 0.87384009
-0.035366543 0.14546996 0.87218755
-0.024613479 0.14572392 0.87166679
-0.017510125 0.14425343 0.87647378
-0.035219729 0.15479587 0.8759715
-0.025886891 0.15445964 0.87583333
-0.019242832 0.15009409 0.87800002
-0.033684116 0.16299596 0.87800014
-0.027365899 0.16211107 0.87757152
-0.0048140832 0.097647376 0.88615
0.0012983433 0.0983845 0.88833332
-0.0034545339 0.10443082 0.88326675
0.0012460939 0.10416134 0.88800001
-0.0038127736 0.11526643 0.88365507
0.00077935663 0.11300672 0.88900012
-0.010033624 0.12549904 0.88040006
-0.0051471763 0.12478805 0.88578779
-0.011588334 0.13521771 0.88136852
-0.0063382997 0.13374841 0.88673693
-0.012287742 0.14537458 0.88347834
-0.0085613513 0.14398846 0.88780004
-0.021931695 0.15837109 0.88000005
-0.015287089 0.15461673 0.88374269
-0.035679664 0.16685687 0.88019055
-0.024031792 0.16578399 0.88041359
-0.016308177 0.16389744 0.88603705
-0.034709059 0.17484543 0.88510811
-0.02515615 0.17480263 0.88516116
-0.018220816 0.17177248 0.88819999
-0.033317495 0.18120043 0.889
-0.026143871 0.1818735 0.889
0.008659713 0.088958874 0.89800006
0.004969486 0.094570786 0.89461559
0.01095213 0.095537238 0.8972308
0.0055596367 0.1049544 0.8945418
0.010234207 0.10155482 0.89800006
0.0029660556 0.11510331 0.89455551
-0.00078242505 0.12675548 0.89250004
0.0025926984 0.12544623 0.89545
-0.0029069644 0.13588953 0.89378566
0.0014610275 0.13332422 0.89685714
-0.005652193 0.14509527 0.89463156
-0.010473711 0.15679744 0.89160001
-0.0068902103 0.15440302 0.8955555
-0.012054107 0.16614626 0.89313328
-0.0082564466 0.16238585 0.89700001
-0.021089969 0.17887419 0.89100003
-0.01548405 0.17472725 0.89441675
-0.024196457 0.18605901 0.89286971
-0.018467421 0.18351279 0.89650005
-0.032824278 0.19312128 0.89757144
-0.025770895 0.19413093 0.8970769
-0.019681167 0.19130094 0.89800006
0.013149806 0.089022569 0.90577781
0.015351349 0.094816729 0.90404546
0.0081620589 0.10926627 0.90100002
0.013657994 0.10483774 0.90384614
0.0073201661 0.11591123 0.90249997
0.012279428 0.11439245 0.90613645
0.0071404497 0.12480873 0.90462506
0.011027215 0.1231158 0.90771431
-0.00078987668 0.1390183 0.90100002
0.0047170338 0.13536966 0.90488237
-0.0015815065 0.14555356 0.90233332
0.0021709772 0.14371815 0.90506667
-0.0025491521 0.15576439 0.90344441
0.0014586272 0.15441826 0.90716672
-0.0053895712 0.16528629 0.9047001
-0.011279413 0.17712745 0.90300006
-0.0081426986 0.17339809 0.90625006
-0.013806904 0.18539664 0.90403587
-0.0087561468 0.18149105 0.90800005
-0.02397011 0.19818093 0.90144444
-0.016788203 0.19517584 0.90516007
-0.025226219 0.20499933 0.90284377
-0.018284639 0.20400378 0.90686673
-0.034130827 0.21305604 0.90750015
-0.025946906 0.2147413 0.90754873
-0.019900333 0.21094353 0.90800005
-0.026268438 0.22049569 0.90800005
0.014662014 0.085197754 0.91357684
0.02389241 0.085473649 0.91484874
0.019305952 0.09445557 0.90999997
0.024295941 0.094249941 0.91512018
0.018163908 0.10612488 0.91214287
0.021348177 0.10373767 0.91540009
0.017129013 0.11562578 0.91293335
0.020560589 0.11405859 0.91714293
0.014429102 0.12501867 0.91415006
0.0082564466 0.13537583 0.91133338
0.011809869 0.13396004 0.91426671
0.0066424152 0.14543234 0.91250002
0.010456442 0.14478193 0.91750008
0.0060328012 0.1546962 0.91430438
0.01046214 0.15049386 0.91800004
-0.0013970778 0.16594215 0.911125
0.0024086083 0.16429037 0.91484618
-0.0039253151 0.17497568 0.9132728
0.00080477999 0.17302769 0.91800004
-0.010370967 0.1890707 0.91000003
-0.0069955671 0.18469229 0.91413331
-0.011540565 0.19563444 0.91242856
-0.0077655134 0.19443853 0.91650003
-0.013751584 0.20587561 0.9137826
-0.0088525796 0.201195 0.91800004
-0.021029772 0.21696419 0.91100001
-0.015227729 0.21500093 0.91454852
-0.024592305 0.22493517 0.91194123
-0.016868666 0.22430801 0.91629422
-0.032537881 0.2333221 0.91745466
-0.025719464 0.23451553 0.91685301
-0.025752962 0.24143399 0.9180001
0.031906724 0.077833317 0.92725009
0.02604638 0.080889761 0.92270005
0.033236314 0.084333703 0.92461902
0.029538581 0.097332619 0.92060006
0.033230517 0.094824903 0.92447072
0.027031139 0.1055155 0.92188901
0.03114154 0.10497868 0.92666668
0.025790101 0.11486672 0.92373699
0.018550267 0.1282388 0.92000002
0.023077222 0.12487707 0.92417395
0.0171798 0.13640471 0.92140007
0.021908261 0.13406186 0.92547083
0.016025703 0.1451533 0.92218184
0.02086642 0.14389607 0.92733341
0.014229227 0.15420231 0.9241668
0.0075269258 0.16613048 0.92230773
0.011277732 0.16373222 0.92611122
-0.00080653332 0.17985693 0.92000002
0.0053645591 0.1751325 0.92388469
-0.0020176482 0.18597446 0.921
0.0033196176 0.18466936 0.92500001
-0.0023300769 0.19547325 0.92294133
0.0016267645 0.19334346 0.92762506
-0.0047820709 0.20537812 0.92325002
-0.0068126805 0.21444301 0.92429423
-0.01149082 0.22645298 0.92320001
-0.0082780132 0.22222149 0.92580003
-0.020163333 0.23873386 0.92000002
-0.01550122 0.2350377 0.92291671
-0.024648361 0.24589702 0.92252183
-0.016458934 0.24472542 0.92495012
-0.031612102 0.25440764 0.92800015
-0.025391947 0.25428176 0.92715997
-0.017898027 0.25138593 0.92800003
0.035206776 0.075324304 0.93400007
0.042526171 0.076889127 0.93600005
0.03761163 0.085238546 0.9308182
0.04260315 0.085204326 0.93450004
0.037608925 0.094838023 0.93258333
0.041530676 0.094713479 0.93620008
0.035731178 0.10487156 0.93390918
0.040293355 0.10278916 0.93800002
0.0285355 0.1182185 0.93000007
0.033247441 0.11433482 0.93396002
0.027765697 0.1257595 0.93150008
0.031527374 0.12422936 0.93578577
0.026747635 0.13573152 0.9339444
0.030941365 0.13115664 0.93700004
0.024382317 0.14491089 0.93320006
0.017348453 0.15704218 0.93244445
0.02197309 0.153208 0.93454552
0.015103885 0.16512567 0.93547058
0.0089683002 0.17855071 0.93000007
0.013072319 0.17465164 0.93417394
0.0078460993 0.18521211 0.93069243
0.011629056 0.18467486 0.93625003
0.0059354715 0.19553764 0.93325001
0.01066728 0.19283335 0.93600005
-0.00081617665 0.20649445 0.93100005
0.0036196832 0.20444809 0.93408328
-0.0022175908 0.21543381 0.93285722
0.0015523819 0.21403128 0.93700004
-0.0056216246 0.22484396 0.93349999
-0.011307498 0.23700583 0.93085724
-0.0077758874 0.23541056 0.93400002
-0.011849757 0.24506557 0.93233329
-0.0078802686 0.2428513 0.93650007
-0.020926034 0.25654772 0.93000013
-0.015206964 0.25531316 0.93460864
-0.024415042 0.26508167 0.93282884
-0.01768093 0.26434639 0.93618184
-0.033147849 0.2744467 0.93742853
-0.024919149 0.27485099 0.93711096
-0.018913206 0.27136338 0.93800002
-0.030973801 0.28095707 0.93800002
-0.027465265 0.28106672 0.93800002
0.043749716 0.067634426 0.94707692
0.045718018 0.073191822 0.94365227
0.051317967 0.074732676 0.9472
0.047924295 0.084278785 0.94250005
0.050887499 0.084102139 0.9471429
0.046714421 0.094641164 0.94452947
0.050695881 0.091418803 0.94800007
0.038731132 0.1087768 0.94000006
0.043481395 0.10478094 0.94381827
0.037955984 0.11667398 0.94120008
0.042292271 0.11393229 0.9458667
0.036481343 0.12564194 0.94350004
0.040665645 0.1219981 0.94666672
0.03402805 0.13525866 0.94445437
0.028170612 0.14562134 0.94199997
0.032474186 0.14366625 0.94653338
0.025780197 0.15515117 0.94440001
0.018491279 0.1661853 0.94042861
0.023129884 0.16420315 0.94550002
0.018159715 0.17498089 0.94150001
0.021847645 0.17416522 0.94633335
0.016442006 0.18531558 0.94428563
0.020755082 0.1826456 0.94700003
0.013709751 0.19490224 0.94427776
0.0085244142 0.2054138 0.94099998
0.012322051 0.20422038 0.94585717
0.0061271107 0.21495752 0.94379997
0.011358093 0.21081729 0.94800013
-0.0023123834 0.22679603 0.94209993
0.0034698464 0.22434053 0.94554543
-0.003078694 0.23484978 0.94327277
0.00182785 0.23355189 0.94739997
-0.0037851236 0.24507749 0.94394743
0.00083108002 0.24018212 0.94800007
-0.011536933 0.25683412 0.94000006
-0.00634966 0.25429615 0.94537479
-0.013037737 0.26541516 0.94283336
-0.0078884661 0.26282924 0.94725001
-0.022249801 0.2793586 0.94000006
-0.014757563 0.27473223 0.94462073
-0.024249582 0.28545642 0.94150031
-0.0175684 0.28330854 0.94618183
-0.025220575 0.29439759 0.9455713
-0.019114841 0.290878 0.94800007
-0.032079685 0.30068475 0.94800007
-0.026080081 0.30334419 0.94800007
0.054807596 0.066125847 0.95568973
0.061372802 0.068939313 0.95900005
0.05657484 0.075299226 0.95434612
0.061372802 0.072302207 0.95900005
0.055226371 0.085344583 0.95440918
0.04918889 0.098377779 0.95100003
0.053440094 0.095234878 0.95572227
0.048498429 0.1053585 0.95380008
0.052152906 0.10383806 0.95777774
0.046765126 0.11601116 0.95462513
0.051284123 0.11013476 0.95900005
0.044735093 0.12511402 0.95438474
0.038829319 0.13569354 0.9525001
0.042512543 0.13501701 0.95580018
0.036486328 0.14535215 0.9541539
0.041195445 0.14208224 0.95900005
0.028883185 0.15743759 0.95220006
0.033546396 0.15471944 0.95655
0.027939299 0.16550732 0.95238483
0.032096591 0.16422048 0.95761532
0.026855806 0.17516641 0.95420009
0.031074325 0.17217033 0.958
0.01917533 0.18925217 0.95100003
0.023872118 0.18557301 0.95524997
0.01819489 0.19572754 0.95412511
0.022660717 0.1938581 0.95727271
0.017134957 0.20537069 0.95452642
0.0091708098 0.21843201 0.95100003
0.014315289 0.21534739 0.95513648
0.0081909588 0.22631598 0.95330012
0.012198817 0.22465116 0.95700014
0.0064245476 0.23547523 0.95523816
0.010929403 0.23288037 0.95900005
-0.00083371002 0.24761187 0.95100003
0.0036919503 0.24454241 0.95595008
-0.0015795585 0.25582087 0.95466679
0.0016796058 0.25400653 0.9575001
-0.0040905266 0.26511535 0.95463169
0.00084072334 0.26146495 0.95900005
-0.01087242 0.27850121 0.95400006
-0.0069488101 0.27455667 0.95540011
-0.013326416 0.28576311 0.95394123
-0.0082233092 0.28396899 0.95719993
-0.02084275 0.29846817 0.95100003
-0.015315576 0.29450428 0.95599997
-0.0092479568 0.29004955 0.95900005
-0.023291998 0.30632162 0.95209104
-0.017929746 0.30362105 0.9574545
-0.025118228 0.31461567 0.95517856
-0.019336637 0.31106764 0.95900005
-0.031527124 0.32157668 0.95900005
-0.0267567 0.32360792 0.95852631
0.062449932 0.058493834 0.96700007
0.064750604 0.064253896 0.96483904
0.070362143 0.066123463 0.96700007
0.065035194 0.074643068 0.96454561
0.059878085 0.084335335 0.96200007
0.063233972 0.084686011 0.96600014
0.057799947 0.095349774 0.96250004
0.06158084 0.093641356 0.9663077
0.056401324 0.10545276 0.96473694
0.049757846 0.11469606 0.96200007
0.054730736 0.11491924 0.96496177
0.060189303 0.11274897 0.96700007
0.049230088 0.12715407 0.96266669
0.053298909 0.1247588 0.96500003
0.047327142 0.1352178 0.96399999
0.051469721 0.13333687 0.96700007
0.039257135 0.14816281 0.96300006
0.043329544 0.14370768 0.96488887
0.038577493 0.15543203 0.96358341
0.036676224 0.16431935 0.96386665
0.029517366 0.17963426 0.96200007
0.034275603 0.17484407 0.96458828
0.028760914 0.1852468 0.9648751
0.032613534 0.18085174 0.96625006
0.019397127 0.19987474 0.96200007
0.025843134 0.19585097 0.96414286
0.019397127 0.20156145 0.96200007
0.023055017 0.20472829 0.96499997
0.019142894 0.21591656 0.96333343
0.021519361 0.2136682 0.96640003
0.01710625 0.22527687 0.96483338
0.014051783 0.23535189 0.96535015
0.008208788 0.24601597 0.96254539
0.0124312 0.24409969 0.96500003
0.005918222 0.25497365 0.96400005
0.011444446 0.25135392 0.96700007
-0.00084335334 0.26818636 0.96200007
0.0033871967 0.26486942 0.96527791
-0.002142506 0.27550256 0.96330774
0.0014120179 0.27325407 0.96600008
-0.0043446342 0.2851243 0.96428567
-0.011806946 0.29770371 0.96200007
-0.0074784388 0.294588 0.96453846
-0.01372952 0.3055262 0.96315795
-0.0093251029 0.3009465 0.96700007
-0.021083834 0.31963092 0.96200007
-0.016076606 0.31471977 0.9653334
-0.023323784 0.32715851 0.96353847
-0.019467698 0.32333571 0.96550006
0.073956206 0.057488762 0.97653842
0.068879701 0.060376033 0.97000003
0.074327059 0.064303823 0.97445452
0.068932958 0.076594144 0.97075003
0.073155664 0.074864663 0.97514296
0.067991093 0.08556138 0.97223097
0.072066672 0.083871864 0.97733337
0.066273056 0.095690921 0.97284997
0.071162537 0.090882279 0.97800004
0.064049624 0.10445941 0.97403711
0.0586753 0.1173506 0.97000003
0.062910132 0.11432927 0.97405559
0.057701904 0.12563159 0.9726668
0.06168386 0.12391333 0.97600001
0.055167962 0.1354171 0.97511774
0.060873978 0.13117914 0.97800004
0.04663704 0.14612429 0.97228581
0.051061302 0.14320219 0.97616673
0.044184137 0.15449606 0.97475016
0.038691681 0.16709705 0.97000003
0.042286966 0.16558239 0.97441667
0.038091164 0.17608951 0.97171438
0.04138853 0.17482376 0.97674996
0.029762832 0.18963176 0.97000003
0.035247609 0.18560506 0.97339994
0.04029686 0.18090717 0.97800004
0.029556086 0.19608621 0.97250009
0.033154603 0.19464384 0.97593755
0.028148381 0.2047016 0.97291678
0.031380106 0.20491381 0.97800004
0.025040099 0.21514606 0.97465003
0.030008299 0.21091548 0.97800004
0.019558433 0.22874863 0.97000003
0.023279389 0.22485334 0.9743126
0.018850671 0.23557919 0.97244453
0.021764303 0.2339222 0.97740012
0.017248591 0.24499208 0.97373337
0.0087871216 0.2576611 0.97000003
0.013926602 0.25552368 0.97528571
0.0083128707 0.26529002 0.97472727
0.011780428 0.26408619 0.97725004
0.0053867218 0.27521342 0.97435015
-0.0011920913 0.28676519 0.97180003
0.0032115043 0.2843343 0.97581249
-0.0028015135 0.29537362 0.97378576
0.0014289668 0.29122341 0.97799999
-0.011054766 0.3086831 0.97000003
-0.0058942679 0.30502936 0.97413641
-0.012135477 0.31640041 0.97150004
-0.0071035861 0.31487802 0.9765501
-0.014708164 0.32483557 0.97295839
-0.0085689779 0.32306787 0.97750002
0.084940523 0.049403671 0.98866671
0.076287717 0.053802598 0.98242116
0.085455656 0.054865874 0.9867143
0.079120919 0.064500742 0.98100001
0.084805138 0.065682553 0.98652649
0.077228889 0.075852886 0.98100007
0.083080195 0.074631207 0.98652953
0.076423019 0.086139679 0.98345464
0.081339523 0.084806979 0.98800009
0.075537652 0.095265754 0.98490494
0.080633171 0.091037452 0.98900002
0.0688008 0.10578123 0.98100007
0.074822769 0.10552607 0.98665011
0.068219304 0.11610688 0.98249996
0.073374234 0.11442409 0.98823082
0.066655792 0.12553836 0.98455554
0.071457535 0.12299369 0.98799998
0.058767349 0.13674159 0.98100013
0.063679896 0.13474932 0.98599994
0.056769114 0.14576019 0.98555011
0.061527535 0.14385442 0.98850006
0.048018537 0.15644713 0.98159999
0.055365078 0.15543327 0.98669237
0.047564983 0.16509968 0.98318195
0.05420142 0.16404256 0.98787504
0.047271967 0.17507607 0.98506677
0.051480494 0.17281537 0.98860008
0.045446023 0.18518537 0.98608696
0.037566919 0.1945253 0.98133332
0.043585148 0.19514023 0.98700011
0.036367312 0.20544015 0.98462504
0.041606817 0.20413293 0.98874998
0.028380329 0.21758252 0.98100013
0.035065219 0.21496888 0.98582608
0.027112013 0.22549686 0.98175001
0.032503538 0.22510475 0.98716682
0.02634027 0.23594044 0.98493761
0.031295538 0.23389557 0.98855549
0.01978023 0.24682286 0.98100007
0.025304876 0.24513407 0.98675013
0.030345816 0.24016546 0.98900002
0.017823134 0.25627246 0.98142862
0.023369245 0.25472918 0.98720014
0.017093889 0.26553246 0.98446679
0.02164636 0.26235509 0.98766667
0.0094601102 0.2752032 0.98100007
0.014694029 0.2744498 0.98562515
0.0077545554 0.28617489 0.98250002
0.013090231 0.28484482 0.98758841
0.0058907215 0.29557469 0.98427278
0.012658541 0.29184005 0.98900002
-0.0012040139 0.30392754 0.98100007
0.0051939804 0.30531955 0.9866153
-0.0028261228 0.31527087 0.98142856
0.0028278928 0.31440562 0.98653346
0.09383788 0.048228577 0.99725008
0.089574292 0.054788161 0.99200004
0.094118014 0.054796375 0.99547356
0.089574292 0.065224007 0.99199998
0.093445808 0.064625956 0.99616677
0.08782272 0.07499405 0.99363637
0.091209717 0.074586362 0.99800009
0.085661381 0.085075289 0.99499995
0.07913845 0.096531518 0.99200004
0.083784394 0.094626039 0.99433327
0.07913845 0.10479324 0.99200004
0.082331747 0.10393833 0.995
0.077905163 0.11555202 0.99400002
0.081667997 0.11314698 0.9974001
0.068702616 0.12957835 0.99200004
0.073437266 0.12551084 0.99425006
0.067495525 0.13568914 0.99470007
0.071305439 0.13298681 0.99800003
0.064815275 0.14495388 0.99521434
0.062542938 0.15395066 0.99424994
0.057006344 0.16840482 0.99275005
0.061303217 0.16317913 0.9953751
0.055488281 0.17528164 0.99583328
0.049570244 0.18697548 0.99200004
0.053021908 0.18431748 0.99580002
0.048601083 0.19579552 0.99350005
0.0518598 0.19432952 0.99700004
0.045885615 0.20486993 0.995
0.039134398 0.21741334 0.99200004
0.04251476 0.2141777 0.9959231
0.037752505 0.22549619 0.99430758
0.041120928 0.22485273 0.99800003
0.0360489 0.23513944 0.99515784
0.028727492 0.24636173 0.99300003
0.032787919 0.24487461 0.99640006
0.027986862 0.25503412 0.99472731
0.030621966 0.25372487 0.99800003
0.025482506 0.26516634 0.99530011
0.017682953 0.27741942 0.99200004
0.022955146 0.27400509 0.99689466
0.017512292 0.28531644 0.99418181
0.020123007 0.28376356 0.99799997
0.014690978 0.29570025 0.99453837
0.0095661869 0.30698761 0.99200004
0.012859071 0.30432531 0.99671429
0.011945751 0.31203106 0.99700004
0.095353216 0.043832134 1.0037272
0.10298903 0.046082698 1.0056363
0.098911665 0.055034507 1.001
0.10258833 0.054126587 1.0050714
0.098408677 0.065018639 1.0022501
0.10160179 0.06509012 1.0052859
0.095548265 0.074954845 1.0031177
0.088631876 0.086876787 1.001
0.092780992 0.084800847 1.0045294
0.088282213 0.096571974 1.0027143
0.091489255 0.093694299 1.0058751
0.08663772 0.10477086 1.0043001
0.084569007 0.1140891 1.0036666
0.077281184 0.12671913 1.003
0.081035778 0.12243811 1.00475
0.069325924 0.13952939 1.001
0.074634194 0.13547212 1.0041666
0.068771653 0.14567307 1.0024999
0.072464295 0.14443843 1.0066667
0.0675973 0.15494677 1.0037273
0.064629115 0.16567619 1.00525
0.058795404 0.1781413 1.001
0.062070414 0.17446376 1.00425
0.05742006 0.18617392 1.0025001
0.061441481 0.18285395 1.006
0.055292852 0.19551015 1.0035386
0.048264883 0.20885532 1.001
0.052905023 0.20426305 1.0046
0.04710352 0.21613801 1.00425
0.050589073 0.21382791 1.0065
0.044782437 0.22477396 1.0040001
0.039489448 0.23781425 1.001
0.04255043 0.23451616 1.003077
0.037939791 0.24534728 1.0024999
0.041368145 0.24204767 1.0040001
0.034827694 0.25488022 1.0022273
0.02895893 0.26677316 1.001
0.032426611 0.26448497 1.0032001
0.027072052 0.27671093 1.0015001
0.031534202 0.27324948 1.003143
0.023518924 0.28471249 1.0034001
0.018428409 0.29573211 1.001
0.021141913 0.29375741 1.00475
0.01695486 0.30565694 1.0027144
0.020304477 0.30280155 1.0070001
0.10465046 0.036918718 1.0154003
0.11296219 0.037653007 1.0178
0.10719155 0.044045251 1.0116
0.11238313 0.044169839 1.0155383
0.10768097 0.055505604 1.013
0.11179882 0.053819586 1.0175
0.10600521 0.064363047 1.0136429
0.098283097 0.077918135 1.01
0.10302448 0.074789606 1.0148001
0.097557783 0.08547508 1.0108184
0.101487 0.085126795 1.0162728
0.096401259 0.095355242 1.0131766
0.10084647 0.093708657 1.018
0.089052454 0.10766102 1.0107501
0.094042458 0.10446351 1.015143
0.087664649 0.11552248 1.0121
0.091669381 0.11458838 1.0185
0.085321978 0.12565829 1.0158502
0.078862086 0.13645996 1.0107501
0.082665935 0.13472812 1.0152501
0.076903515 0.14547943 1.0126251
0.082006715 0.14427945 1.018
0.069949232 0.1567217 1.01
0.075057857 0.15455042 1.0147729
0.068178363 0.16587119 1.0100001
0.07244809 0.16464886 1.0151999
0.066663049 0.1755254 1.0119287
0.071064204 0.17245539 1.0175
0.065449715 0.18517421 1.0152001
0.058918767 0.19626737 1.0117142
0.063131072 0.19343467 1.0168182
0.057110135 0.20652294 1.0110716
0.061488081 0.20495896 1.0165
0.056241836 0.21500416 1.0138183
0.061639309 0.21171764 1.0190001
0.048698831 0.22490007 1.01
0.054349545 0.22433235 1.0162402
0.047132466 0.23552987 1.0118002
0.050881952 0.23388042 1.01825
0.04463011 0.24532552 1.013
0.039588805 0.25525904 1.011
0.043606751 0.25389183 1.0150769
0.037106887 0.26639488 1.01375
0.040533207 0.26373357 1.0184
0.035135243 0.27502689 1.016
0.027679982 0.2867659 1.0103751
0.032267466 0.28423378 1.0146364
0.026382973 0.29514831 1.0131502
0.031944156 0.29248634 1.0178001
0.023932224 0.30460984 1.015
0.11565215 0.034244228 1.0241427
0.12226462 0.037550554 1.028
0.11780296 0.045186494 1.0248237
0.12166379 0.044519939 1.028
0.11527894 0.054765452 1.0241001
0.10841035 0.068988405 1.0220001
0.11252116 0.064374283 1.0246
0.10754867 0.076401182 1.0230911
0.11084924 0.074800707 1.028
0.10678333 0.085093096 1.0247858
0.11084924 0.080207989 1.028
0.10396033 0.095100604 1.0247859
0.099200822 0.10547688 1.0225002
0.10279969 0.10441871 1.0267999
0.095228575 0.11499084 1.0247501
0.10003468 0.11084924 1.028
0.088699378 0.12991323 1.0220001
0.092411518 0.12519403 1.0246251
0.087985165 0.13557063 1.0241001
0.092048794 0.1334599 1.026875
0.085625954 0.1450461 1.0241818
0.079350382 0.15735619 1.0227501
0.083451256 0.15438437 1.0252306
0.077615768 0.16511305 1.0246999
0.081409603 0.1625188 1.028
0.07340724 0.17576817 1.0242501
0.068988405 0.18725425 1.0220001
0.071787052 0.18465263 1.0247273
0.067069948 0.19607094 1.0239288
0.071879275 0.19326104 1.0267142
0.065337703 0.20429923 1.0252308
0.063150793 0.21551326 1.025375
0.061604306 0.22448803 1.0252308
0.05512739 0.23498054 1.0228571
0.060205083 0.23093592 1.0250001
0.048976909 0.24667752 1.0232
0.052747037 0.24459504 1.0260907
0.047267586 0.25573367 1.0250001
0.044015553 0.26574108 1.0245715
0.038227346 0.27565497 1.0220002
0.042371809 0.27429536 1.0254
0.03678501 0.28439572 1.0233637
0.04120351 0.28230578 1.0262001
0.034318257 0.29500562 1.0246999
0.12392467 0.028165413 1.0364616
0.13012713 0.028209379 1.0380001
0.12525254 0.03446956 1.033316
0.13058212 0.033669259 1.0380001
0.12532946 0.04440799 1.0337858
0.13012713 0.041859079 1.0380001
0.11840348 0.05603829 1.031
0.121894 0.054829434 1.0337502
0.11732393 0.065834969 1.0334167
0.12147853 0.063012458 1.0366668
0.11583732 0.074699365 1.0349445
0.10936505 0.089480489 1.031
0.11400045 0.084816583 1.0336502
0.1086677 0.095399052 1.0320001
0.11344052 0.094289541 1.0364616
0.1065377 0.10472338 1.0327778
0.11010758 0.10282774 1.0380001
0.098067001 0.11704771 1.031
0.1030444 0.11465893 1.0352668
0.097723551 0.1245615 1.0330001
0.1015443 0.12380725 1.0365001
0.096158698 0.13478191 1.0356364
0.10100778 0.13012713 1.0380001
0.089266002 0.1462651 1.0320001
0.092460282 0.14388458 1.0351112
0.087801948 0.15514362 1.0325
0.091907978 0.15419108 1.0380001
0.084883519 0.16540377 1.0344002
0.090088017 0.16197644 1.0380001
0.077525631 0.17584972 1.0315455
0.083251253 0.17414404 1.0368236
0.077003248 0.18510407 1.0333334
0.081443213 0.18245098 1.0380001
0.075877719 0.19519752 1.0339413
0.069137312 0.20611998 1.0318573
0.073749699 0.20478471 1.0351335
0.067339152 0.21454568 1.034182
0.072343409 0.2129353 1.0380001
0.065648675 0.22412047 1.0338572
0.058749817 0.23861463 1.031
0.062583476 0.23527876 1.0346
0.05710499 0.24622965 1.0338889
0.06096866 0.2411447 1.0380001
0.049349844 0.2572338 1.031
0.054564286 0.25504088 1.0345265
0.048786305 0.26485425 1.0326667
0.053450689 0.26311076 1.0365456
0.047033064 0.27584052 1.0338889
0.050048899 0.27299398 1.0380001
0.038865265 0.28832603 1.031
0.044129327 0.28529298 1.0349091
0.038164809 0.29554749 1.0316001
0.042024773 0.29465237 1.0359092
0.13422203 0.025437359 1.0446668
0.13544014 0.034774251 1.0438502
0.12806959 0.047759924 1.041
0.13298212 0.044550046 1.044818
0.12756148 0.055456001 1.0438
0.1312554 0.054154329 1.0470001
0.12610216 0.065228179 1.0445294
0.11955192 0.077571847 1.041
0.12370147 0.074567519 1.0443333
0.1192477 0.085481137 1.041
0.1227847 0.085215688 1.0452
0.11771593 0.094952561 1.0423636
0.12207671 0.090869129 1.0470001
0.10860059 0.10860059 1.041
0.11366358 0.1041707 1.044818
0.1076608 0.11579043 1.0436666
0.11106227 0.11106227 1.0470001
0.1061468 0.12488008 1.0444615
0.098859072 0.13723181 1.0422
0.10299237 0.13469703 1.0452001
0.097141676 0.1449745 1.043077
0.1009657 0.14410557 1.0470001
0.095617697 0.15541498 1.0433078
0.092438035 0.16485628 1.042091
0.087363034 0.17604432 1.0416666
0.091394246 0.17361856 1.0460001
0.085461996 0.1853267 1.0446316
0.079397067 0.19803637 1.041
0.082553655 0.19411765 1.045
0.078711957 0.20593032 1.044
0.081690431 0.2019314 1.0470001
0.0759826 0.21572354 1.0441668
0.067967966 0.22737314 1.0430001
0.072084956 0.22442079 1.0456363
0.067568287 0.23585673 1.0453635
0.070675991 0.23038536 1.0470001
0.059319649 0.24914253 1.041
0.063887037 0.24514663 1.0436471
0.059319653 0.25461817 1.041
0.062585391 0.25525153 1.0456363
0.057161953 0.26614615 1.04325
0.061409183 0.26213604 1.0455
0.054070331 0.27514517 1.0453125
0.047759924 0.28595111 1.041
0.051923685 0.2844072 1.0446923
0.14595602 0.016398102 1.0564708
0.15165953 0.016370581 1.057
0.1371545 0.022091998 1.0500001
0.14458337 0.024925651 1.0531
0.15104178 0.025019191 1.057
0.1389955 0.038660999 1.0500001
0.1434218 0.034644987 1.05375
0.13736419 0.045543533 1.0516001
0.14270204 0.045405194 1.057
0.135335 0.055055127 1.0518236
0.14177541 0.052818287 1.057
0.1297905 0.068117 1.0500001
0.1350424 0.064340644 1.0541251
0.12856317 0.074253671 1.0500001
0.13294506 0.074921519 1.0550909
0.127029 0.084686004 1.0500001
0.13072975 0.084134579 1.0546
0.12425975 0.094576262 1.0525001
0.11714832 0.10691619 1.0521818
0.1226071 0.1022487 1.0555
0.1095395 0.1187445 1.0500001
0.11420047 0.11504947 1.0537692
0.1213894 0.11026976 1.057
0.10917129 0.1275813 1.0500001
0.11283752 0.12424325 1.0549999
0.10771954 0.13504444 1.0518183
0.11249368 0.1362156 1.057
0.10482442 0.14524256 1.0519167
0.11026976 0.14270204 1.057
0.098681107 0.15862933 1.052
0.10310663 0.15370326 1.0532001
0.098116092 0.16723132 1.0558335
0.10239335 0.16169809 1.057
0.09618549 0.17552033 1.0549001
0.089288503 0.18778199 1.0500001
0.093443632 0.18453577 1.0536923
0.086958461 0.19510593 1.0509232
0.092848994 0.19552033 1.057
0.085578911 0.20521633 1.0541334
0.083534755 0.21521761 1.0536429
0.076676615 0.22566818 1.0514547
0.082007423 0.22492023 1.0558001
0.07422211 0.23449385 1.052
0.081544027 0.2325858 1.057
0.068511494 0.24656248 1.0500001
0.072616056 0.24407765 1.0538
0.066932097 0.25481334 1.0516001
0.072051831 0.25468254 1.0564001
0.059832498 0.26970649 1.0500001
0.06547042 0.26494509 1.05425
0.058298338 0.27584317 1.0500001
0.063016862 0.27535912 1.0556364
0.056609333 0.28573576 1.0506155
0.062011391 0.28386667 1.0557144
0.14410646 0.011631905 1.0616668
0.15343881 0.019063773 1.06075
0.15460403 0.025338704 1.0612354
0.14899243 0.035312131 1.0600001
0.15441246 0.034501743 1.0636001
0.14645876 0.046052516 1.0620002
0.15132362 0.042969383 1.0655
0.14527985 0.055168636 1.0638462
0.13846073 0.06876573 1.0600001
0.14280583 0.065463856 1.0637335
0.13809766 0.076160662 1.0612857
0.14174888 0.074962236 1.0655
0.13657853 0.083144717 1.0630001
0.12842026 0.09771239 1.0615001
0.13239157 0.093236566 1.0635
0.12610871 0.1057936 1.0637778
0.13002107 0.10008816 1.067
0.119132 0.11727345 1.0600001
0.12315394 0.1150775 1.0633334
0.11725394 0.12562984 1.0615001
0.12081281 0.12320912 1.0635716
0.11652032 0.13464612 1.0632727
0.12066703 0.13002107 1.067
0.11371366 0.14501125 1.0626
0.10847558 0.1568532 1.0612
0.1121531 0.15413649 1.0643002
0.10572101 0.16531229 1.0622106
0.11131299 0.16463098 1.067
0.099431537 0.17687042 1.0600001
0.10415032 0.17444858 1.06355
0.09884011 0.18581927 1.061125
0.10297339 0.183375 1.0664285
0.096321747 0.19560027 1.0610909
0.10008816 0.19362849 1.067
0.093667299 0.2051273 1.0625
0.087940626 0.21729147 1.0615001
0.091855906 0.21414109 1.0648
0.086860292 0.22515494 1.0632728
0.078987665 0.23882154 1.0600001
0.084811419 0.23519994 1.0630625
0.078144997 0.24623005 1.0625557
0.082124822 0.24325733 1.0645
0.07592795 0.25588116 1.0626667
0.069694996 0.26669952 1.0600001
0.074271798 0.26465893 1.0639375
0.067944296 0.27497768 1.0616667
0.072026052 0.27369902 1.067
0.15852763 0.038459368 1.0700001
0.15560246 0.044940818 1.0718824
0.1491473 0.056282002 1.0700001
0.1554475 0.055011671 1.0757083
0.1482348 0.064134195 1.0718751
0.15389973 0.063259393 1.077
0.14608869 0.074736975 1.0737001
0.13798755 0.087768577 1.0707501
0.14306635 0.08450485 1.0742726
0.13639173 0.095535703 1.0740769
0.14068133 0.091584489 1.077
0.12851056 0.10787383 1.0700001
0.13314675 0.10395976 1.0738571
0.12800622 0.11518205 1.072909
0.13123962 0.11046789 1.077
0.12638016 0.12543473 1.0731111
0.11913023 0.13789089 1.0700001
0.12355856 0.13391946 1.0745
0.11866824 0.14574951 1.0726001
0.12179793 0.14068133 1.077
0.11656529 0.15610752 1.074
0.1097499 0.16978404 1.0700001
0.11446224 0.16491021 1.0737001
0.10912454 0.17478687 1.0700001
0.11167813 0.17575896 1.075
0.10649523 0.18587279 1.0732727
0.11046789 0.18411314 1.077
0.10372334 0.19507633 1.0736001
0.098562539 0.20651397 1.0707501
0.10171638 0.20531388 1.0743001
0.096819386 0.21592708 1.0722142
0.10095115 0.21605714 1.0762001
0.089113168 0.22981817 1.0700001
0.094481409 0.224364 1.0745294
0.089238092 0.23577644 1.0715001
0.091899216 0.23446888 1.077
0.086776145 0.24576108 1.0735333
0.091584489 0.24076335 1.077
0.079732835 0.25514504 1.0700001
0.084099017 0.25499827 1.0748124
0.079431482 0.26601967 1.07225
0.082682319 0.26450247 1.077
0.075548947 0.27597496 1.0733571
0.080726534 0.27380928 1.077
0.15716881 0.059648398 1.08
0.16000921 0.051127199 1.08
0.15542437 0.067175046 1.0815384
0.14864761 0.077637598 1.08
0.15520518 0.075222023 1.0861199
0.1610463 0.079093739 1.087
0.14729719 0.085877217 1.0812
0.15397447 0.083495021 1.0863999
0.1391796 0.099413998 1.08
0.14510904 0.094283976 1.0840526
0.15151693 0.09052898 1.087
0.13782459 0.10604171 1.082375
0.14257929 0.10383883 1.0866666
0.1345761 0.11485473 1.0838749
0.13321586 0.12406156 1.0832728
0.12693782 0.13750592 1.0817143
0.13121395 0.13393512 1.0857142
0.12511829 0.14561446 1.0848333
0.13055232 0.14103463 1.087
0.12296443 0.15432313 1.0841249
0.11805894 0.16581413 1.0807999
0.12164617 0.1641341 1.085
0.11671781 0.17476907 1.084
0.12102295 0.17057566 1.087
0.11441033 0.18470459 1.0836428
0.10845619 0.19565496 1.0811428
0.11240424 0.19403692 1.0855556
0.10715282 0.20436606 1.0833637
0.10529667 0.21411033 1.0834285
0.098085843 0.22791667 1.081
0.10283662 0.22419643 1.083625
0.096092686 0.23548116 1.0837142
0.10005835 0.23346949 1.087
0.094236039 0.24468039 1.0839167
0.088863932 0.25441867 1.08
0.092870817 0.25386009 1.0857142
0.086393312 0.26581383 1.0828999
0.09052898 0.26110464 1.087
0.15512033 0.088230662 1.09
0.14811283 0.097467802 1.09
0.15357877 0.095678709 1.0929286
0.14617959 0.10571778 1.0909232
0.15179706 0.10419359 1.094
0.13855717 0.1175347 1.09
0.14396381 0.11423147 1.0939445
0.15098742 0.11059588 1.097
0.13817231 0.12603067 1.0936667
0.14223544 0.12205283 1.0962501
0.13621007 0.13524625 1.0941429
0.1290015 0.14811283 1.09
0.13415201 0.14468692 1.0930001
0.12816428 0.15542334 1.0910001
0.13231881 0.15316245 1.0948572
0.12677822 0.16467895 1.0936154
0.11944583 0.1777354 1.09
0.124387 0.17524199 1.0945625
0.11889978 0.18524344 1.09
0.12263816 0.18471339 1.0965716
0.11681961 0.19542994 1.0915385
0.12117462 0.19330236 1.097
0.10989016 0.20831352 1.09
0.11443433 0.20489864 1.0932001
0.10925312 0.21436544 1.09
0.11294246 0.21416712 1.0955001
0.10706604 0.22574078 1.0936667
0.11059588 0.22119176 1.097
0.10374936 0.23527418 1.0928572
0.097803392 0.24708919 1.0916001
0.10159127 0.24445261 1.0947143
0.096964382 0.25557399 1.0932502
0.088867702 0.26851425 1.09
0.093912795 0.26446328 1.0939231
0.15732923 0.094590575 1.1010001
0.14815973 0.11630781 1.1010001
0.15222712 0.11586805 1.1044445
0.14559616 0.12537707 1.1017998
0.1511611 0.12499942 1.1052999
0.13995545 0.13802503 1.1010001
0.14525762 0.13460684 1.1045998
0.15115762 0.13342366 1.1062857
0.13802503 0.14767712 1.1010001
0.14192796 0.14408125 1.1063334
0.13651325 0.15534517 1.1043636
0.14084527 0.15055872 1.108
0.13303103 0.16515136 1.1049166
0.12837292 0.17663342 1.1010001
0.13183096 0.17545089 1.1057
0.12731701 0.18574049 1.104
0.131661 0.18374348 1.107
0.12379889 0.19559054 1.104
0.11872083 0.20752014 1.1010001
0.12265311 0.20383616 1.1051
0.11742309 0.21627323 1.1033
0.12125396 0.2134096 1.1065
0.11523552 0.22497702 1.1036665
0.10887908 0.23547705 1.1023334
0.11318388 0.23457098 1.106909
0.10693738 0.245553 1.1042
0.1035938 0.25494194 1.1043333
0.15658377 0.11556453 1.1140001
0.15110226 0.13940403 1.1120001
0.14725927 0.14595804 1.1134001
0.15150991 0.14466754 1.115
0.13940403 0.1589011 1.1120001
0.14515136 0.1555205 1.1156999
0.15126866 0.15578119 1.1190002
0.13834703 0.16566449 1.1129
0.1442391 0.16444479 1.118077
0.13707122 0.17455989 1.1146364
0.14093556 0.17363523 1.1190001
0.13532096 0.18520854 1.1158334
0.1283557 0.19562058 1.1120001
0.13213274 0.19477235 1.1164443
0.1266901 0.20613189 1.1128571
0.13083236 0.20387498 1.1172856
0.12588221 0.21509552 1.1152501
0.13047168 0.21189384 1.1190001
0.11990696 0.22909053 1.1120001
0.12331667 0.22473979 1.1146001
0.11758916 0.23591045 1.113125
0.12228185 0.23405659 1.1184286
0.11527801 0.24509192 1.1148825
0.12066177 0.24132353 1.1190001
0.10820872 0.25541157 1.1120001
0.11317275 0.25471413 1.1160556
0.14777379 0.16747686 1.1237501
0.15174749 0.16455911 1.124
0.14388148 0.17443047 1.1241251
0.13890675 0.18521094 1.12375
0.14115912 0.18261844 1.126
0.13683197 0.19479559 1.1245
0.13451956 0.20547238 1.124125
0.13244666 0.21492323 1.1238571
0.1280411 0.2245665 1.1235
0.13128784 0.22309062 1.126
0.12477193 0.23593783 1.1242001
0.12240608 0.24579367 1.1247143
0.15282929 0.16969812 1.132
0.14794061 0.17592265 1.1308889
0.15264569 0.17614354 1.1339999
0.14539364 0.18586318 1.133
0.15213084 0.18456717 1.1369091
0.1396793 0.19713604 1.13
0.14452836 0.1949735 1.1340001
0.15164229 0.19354345 1.138
0.13809429 0.20506108 1.13
0.14261505 0.20455368 1.136
0.1368089 0.21608567 1.1335555
0.14066818 0.21249874 1.138
0.12977296 0.2288363 1.13
0.13509724 0.22389929 1.1339999
0.12836888 0.23511675 1.1316001
0.1312128 0.23475066 1.1356
0.12699258 0.24482124 1.1326667
0.13069171 0.24442343 1.138
0.1525422 0.19805478 1.141
0.14783518 0.20765615 1.1427144
0.152643 0.20486428 1.1455001
0.14589724 0.21548556 1.1440771
0.15165311 0.21477659 1.149
0.13853408 0.22866417 1.1423334
0.14379472 0.22492567 1.1454002
0.15075773 0.22126804 1.149
0.13727987 0.23497514 1.143
0.1410206 0.23570587 1.149
0.1546519 0.2132781 1.153
0.14788157 0.22677842 1.1537999
0.15163089 0.22593133 1.1556667
0.1447964 0.23541699 1.155
0.15395406 0.22838393 1.1630001
