# .PCD v0.7 - Point Cloud Data file format
VERSION 0.7
FIELDS x y z
SIZE 4 4 4
TYPE F F F
COUNT 1 1 1
WIDTH 1410
HEIGHT 1
VIEWPOINT 0 0 0 1 0 0 0
POINTS 1410
DATA ascii
-0.071566686 0.11363892 0.88871431
-0.065086097 0.11466788 0.88374996
-0.058012225 0.11749803 0.88018191
-0.064558454 0.12436916 0.88719338
-0.057090811 0.12546977 0.88235998
-0.062608309 0.13368565 0.889
-0.054712459 0.13523892 0.88333315
-0.048602398 0.13963546 0.88000005
-0.054498404 0.14505157 0.8864705
-0.053110391 0.1542194 0.88827986
-0.051177751 0.16314533 0.889
-0.090533368 0.096831337 0.89800006
-0.084656172 0.096888624 0.89646429
-0.075797394 0.096070856 0.89508021
-0.064529866 0.095724173 0.89607143
-0.054933242 0.094952494 0.89516664
-0.044562172 0.094813079 0.89570838
-0.035294145 0.093895644 0.89468002
-0.0252853 0.093129829 0.89575005
-0.084589675 0.1050262 0.89666677
-0.077759676 0.10529743 0.89233327
-0.082880996 0.11444265 0.89768422
-0.075977221 0.11526685 0.89403343
-0.081086405 0.12202322 0.89800006
-0.075534739 0.12515911 0.89530778
-0.068998046 0.12627946 0.89099997
-0.074503139 0.13485566 0.89657152
-0.066926442 0.13586943 0.89370841
-0.071626157 0.14417119 0.89783335
-0.064541951 0.14468567 0.89410275
-0.063766986 0.15460882 0.89580661
-0.057460457 0.15596448 0.89174992
-0.061535686 0.16383216 0.89760005
-0.055633154 0.16510276 0.8937242
-0.054223586 0.17166442 0.89636368
-0.10109369 0.089949504 0.90800005
-0.095452636 0.089087434 0.90733337
-0.084086888 0.089333199 0.90660012
-0.074515022 0.088623047 0.90746671
-0.064980283 0.088369735 0.90717649
-0.055065103 0.088120617 0.90640002
-0.04490051 0.089009508 0.90592313
-0.034600414 0.08866632 0.90492314
-0.026210092 0.089232102 0.90611118
-0.014353191 0.088849768 0.9055385
-0.10181735 0.095159777 0.90800005
-0.095264167 0.095076822 0.9044286
-0.085853346 0.092065297 0.90200001
-0.074713543 0.092130944 0.90306246
-0.065167896 0.09255518 0.90329409
-0.055333152 0.091692902 0.90166664
-0.045884654 0.091410272 0.90100002
-0.03428065 0.090835817 0.90100002
-0.024498012 0.090886228 0.90150005
-0.018957039 0.090835817 0.90100002
-0.094657861 0.1044822 0.90532285
-0.088729478 0.10926627 0.90100002
-0.093961015 0.11342634 0.90719062
-0.087731369 0.1158201 0.9025625
-0.091541536 0.12258606 0.90800005
-0.086041465 0.12526678 0.90487891
-0.084759973 0.13496247 0.90596443
-0.079151101 0.13673583 0.90157139
-0.082153946 0.14388858 0.90746677
-0.076120675 0.14571349 0.90309536
-0.080397345 0.15363057 0.90800005
-0.074714139 0.15523732 0.90581101
-0.068243526 0.15703905 0.9016667
-0.073012792 0.16414405 0.90744454
-0.066195853 0.16577683 0.90333343
-0.063765302 0.17266196 0.90609097
-0.055380151 0.17678618 0.90383339
-0.04976223 0.17930201 0.90100002
-0.052100301 0.18414323 0.90733337
-0.045774359 0.18599468 0.90390486
-0.050148841 0.19024718 0.90800005
-0.12152178 0.086111456 0.91800004
-0.11519796 0.0864328 0.91699982
-0.10506435 0.085810579 0.91483873
-0.094758227 0.085826248 0.91419059
-0.084973805 0.085874118 0.91404361
-0.075812869 0.08498212 0.91455555
-0.065447479 0.085312478 0.91476929
-0.053775318 0.085345648 0.91555566
-0.045138381 0.085887589 0.91464716
-0.035302486 0.085821159 0.91380006
-0.024654096 0.086183168 0.91454166
-0.014793211 0.084928766 0.91400021
-0.004630744 0.084789798 0.91360879
-0.11518285 0.094404206 0.91596895
-0.10681768 0.094393767 0.91188461
-0.11278419 0.10347172 0.91800016
-0.10529073 0.10486386 0.913912
-0.099401727 0.10706028 0.91000003
-0.11025486 0.11186442 0.91800004
-0.1044745 0.11543285 0.91565716
-0.096945398 0.11691009 0.9109
-0.10267234 0.1251048 0.91690922
-0.09572769 0.12508784 0.91284627
-0.10184938 0.13296753 0.9180001
-0.094610974 0.13469484 0.91452789
-0.088552102 0.13322704 0.91000003
-0.093679346 0.14440015 0.91677773
-0.0867448 0.14572372 0.91333336
-0.092349812 0.15311034 0.91714299
-0.08541403 0.15459798 0.913719
-0.08445657 0.16296069 0.91660011
-0.077187695 0.16658244 0.91266662
-0.073688656 0.17408289 0.91612512
-0.066554889 0.17639573 0.91320002
-0.059832498 0.17790197 0.91000003
-0.063479923 0.18433915 0.91655171
-0.055993821 0.18618934 0.91238892
-0.060358498 0.19153763 0.91800004
-0.054365635 0.19489732 0.91440642
-0.046951462 0.1972225 0.91079998
-0.052988369 0.20408827 0.91733348
-0.045308497 0.2051225 0.91303349
-0.051103532 0.21125475 0.91800004
-0.044313204 0.21405683 0.91620845
-0.12447264 0.078914024 0.92800009
-0.11552364 0.078914024 0.92800003
-0.10479201 0.07899873 0.92662507
-0.094267964 0.078828983 0.92700005
-0.084608853 0.078914024 0.92800003
-0.076473385 0.078914024 0.92800003
-0.065083727 0.078914024 0.92800003
-0.055158466 0.078914024 0.92800009
-0.044977508 0.078681581 0.92800003
-0.03477912 0.078710638 0.92800003
-0.0244064 0.078263193 0.92800009
-0.014173541 0.078340158 0.9256925
-0.0048701023 0.077910468 0.9257502
0.0044405228 0.077987097 0.92500013
-0.13179454 0.085422397 0.92800009
-0.12496308 0.084406793 0.92393941
-0.1152209 0.081459925 0.92231256
-0.1050998 0.080860786 0.92154545
-0.09467189 0.081318617 0.9230001
-0.085228905 0.081517212 0.92282367
-0.074302256 0.081361301 0.92414302
-0.064830132 0.08184585 0.924389
-0.055416603 0.082257226 0.92380953
-0.045313537 0.081723362 0.9230001
-0.035150994 0.081914917 0.92428559
-0.024572782 0.081803523 0.92294741
-0.01516469 0.081061751 0.92237502
-0.0048481859 0.080805644 0.92175007
-0.13098101 0.090303682 0.92800003
-0.12499759 0.09477374 0.92562056
-0.11894701 0.099527091 0.92300004
-0.12235267 0.10504027 0.92778593
-0.11710698 0.10629671 0.92477787
-0.11514519 0.11509231 0.92656237
-0.11329224 0.12441058 0.92689496
-0.10797425 0.12550138 0.92176926
-0.11186267 0.13220133 0.92800003
-0.10629638 0.13589002 0.92495829
-0.10492463 0.14457861 0.92670363
-0.098879784 0.14599645 0.92262495
-0.10272326 0.15272965 0.92750007
-0.096862838 0.1549904 0.92433351
-0.091857143 0.16400088 0.92725003
-0.086270571 0.16788058 0.92400002
-0.084324546 0.17283592 0.92692322
-0.076644331 0.17784292 0.92554551
-0.080541119 0.18142091 0.92800003
-0.07455495 0.18523774 0.92661279
-0.068087891 0.18711889 0.9224
-0.072236933 0.19319811 0.92772734
-0.065345101 0.1952149 0.92473322
-0.059068922 0.19905418 0.92300004
-0.063186795 0.20410497 0.92685717
-0.057476148 0.20617311 0.92338467
-0.061016001 0.21070859 0.92800003
-0.055292975 0.21489348 0.9258399
-0.04749484 0.21806589 0.92212498
-0.052863955 0.22267728 0.92770016
-0.04579065 0.22531016 0.92413783
-0.051253438 0.2302337 0.92800003
-0.044285301 0.23376873 0.92685014
-0.14376298 0.078040689 0.9370625
-0.13463193 0.077168338 0.93517381
-0.12480108 0.07611081 0.9347648
-0.11495795 0.076248683 0.9342106
-0.10438101 0.076523013 0.93459988
-0.094955705 0.075304128 0.93375021
-0.08530508 0.076245926 0.93405879
-0.0750314 0.076500788 0.93435001
-0.06531395 0.076537736 0.93480003
-0.05459585 0.076046519 0.93463647
-0.045115754 0.075705051 0.93389469
-0.03446776 0.075861275 0.93263173
-0.024823399 0.075452305 0.93353343
-0.014948247 0.075628288 0.93538463
-0.0049834452 0.075206727 0.93484622
0.005189925 0.074446231 0.93459994
-0.14348507 0.08496467 0.93639284
-0.13598344 0.084530398 0.93159997
-0.1296327 0.080714703 0.93000007
-0.14196101 0.094288997 0.93757141
-0.13520546 0.09511473 0.93389654
-0.1296327 0.097020693 0.93000007
-0.13387784 0.10468411 0.93603563
-0.12685201 0.10458365 0.93070602
-0.13172345 0.11281813 0.93762511
-0.12536718 0.11484362 0.93332154
-0.11930557 0.11930557 0.93000007
-0.12467527 0.1246721 0.93559361
-0.11747948 0.12580132 0.93060017
-0.12343939 0.13411826 0.93712479
-0.11551053 0.13548835 0.93248153
-0.12120899 0.14258914 0.93800002
-0.11460049 0.1448302 0.93368751
-0.1084349 0.1483846 0.93000007
-0.1128386 0.1529122 0.9360835
-0.10587362 0.15630814 0.9329446
-0.098651297 0.1589835 0.93000007
-0.10249635 0.16425617 0.93646157
-0.096380793 0.16591586 0.93269581
-0.10114454 0.17104116 0.93800002
-0.094615713 0.17457724 0.93553579
-0.085963629 0.17734297 0.93274999
-0.093018018 0.18321688 0.93778569
-0.085344307 0.18526308 0.9347142
-0.079084098 0.1883343 0.93000007
-0.083506443 0.19451752 0.93660003
-0.076385409 0.19614455 0.93185014
-0.081409022 0.20146677 0.93800002
-0.075069144 0.20484178 0.93613321
-0.06791047 0.20590639 0.93141681
-0.072599538 0.21423656 0.9375
-0.06586352 0.21497509 0.93393755
-0.059037361 0.21791917 0.93100005
-0.071541257 0.22120228 0.93800002
-0.06457831 0.22427101 0.93681473
-0.05654281 0.22563553 0.93222731
-0.060440034 0.23230352 0.93800002
-0.055157095 0.23501745 0.93563998
-0.047663048 0.23721813 0.93199998
-0.052419007 0.2445427 0.93690908
-0.044450894 0.24549657 0.93355179
-0.051257532 0.25190198 0.93800002
-0.044074468 0.25480545 0.93566644
-0.11053364 0.068979636 0.94800007
-0.10471608 0.068979628 0.94800001
-0.083107993 0.068979636 0.94800007
-0.078952603 0.068979636 0.94800007
-0.062330998 0.068979636 0.94800007
-0.040722921 0.068979636 0.94800007
-0.034905359 0.068979636 0.94800007
-0.024766183 0.068979636 0.94800007
-0.01472258 0.068171196 0.94727284
-0.0058116429 0.068509519 0.94725001
0.0061763111 0.068152353 0.94677776
0.014677529 0.067585729 0.94514287
0.024547104 0.068161979 0.94589996
-0.16039844 0.076459363 0.94800007
-0.15426773 0.074947633 0.94622564
-0.14579588 0.073682889 0.94445455
-0.13446422 0.072919644 0.94276929
-0.12457386 0.072150335 0.94476473
-0.11506698 0.072016574 0.94429421
-0.10557074 0.072460398 0.9441818
-0.094079398 0.071509786 0.94629991
-0.085066959 0.072110809 0.94311112
-0.074984893 0.072008796 0.94310015
-0.064660721 0.072241753 0.94494748
-0.055041734 0.071798123 0.94412506
-0.04442941 0.071868651 0.94506258
-0.03499927 0.071892709 0.94394124
-0.024603957 0.071965925 0.94488233
-0.01488127 0.071907856 0.94283336
-0.004911087 0.071835719 0.94317651
0.0046387804 0.071267061 0.94276929
0.01419078 0.070794344 0.94119996
-0.16039844 0.080614761 0.94800007
-0.15442365 0.084148757 0.94609088
-0.14851773 0.086802654 0.94042861
-0.15240777 0.094538547 0.94726312
-0.14636387 0.095530622 0.94171435
-0.15153359 0.10360797 0.94800001
-0.14513873 0.10466769 0.94485706
-0.13868792 0.10758103 0.94085711
-0.14324619 0.11437169 0.94686949
-0.13549715 0.11590841 0.94214296
-0.1417124 0.12232521 0.94777787
-0.13496944 0.12470147 0.94538444
-0.12937847 0.1285544 0.94000006
-0.13458852 0.13405783 0.94659096
-0.12814213 0.13624062 0.94081819
-0.13169849 0.1424941 0.9472
-0.12551931 0.14537957 0.94400012
-0.11948966 0.14915606 0.94000006
-0.12312988 0.15367834 0.94686669
-0.11634664 0.15588595 0.94206244
-0.1205066 0.16039844 0.94800007
-0.11441296 0.16453022 0.94651991
-0.10719727 0.16538766 0.94150001
-0.11154898 0.17317675 0.94763643
-0.10495444 0.17549193 0.94374061
-0.098887995 0.17799839 0.94000006
-0.10397594 0.18437253 0.94655544
-0.09653993 0.18598451 0.9412002
-0.10139176 0.19197947 0.94800007
-0.094580226 0.19528201 0.94466662
-0.08787141 0.19617659 0.94066674
-0.093690656 0.20383601 0.94727254
-0.085334569 0.2052522 0.94288474
-0.079385087 0.20793949 0.94000006
-0.09058772 0.21109432 0.94800007
-0.084386244 0.21493688 0.94613332
-0.077055879 0.21528101 0.94131255
-0.082378611 0.22361606 0.94769233
-0.074815646 0.22508451 0.94367874
-0.067298777 0.22881587 0.94000006
-0.073903233 0.23295948 0.94716668
-0.06485524 0.2359882 0.94255573
-0.058508731 0.2398034 0.94000006
-0.070641808 0.24433751 0.94800001
-0.064539969 0.24506517 0.94487876
-0.057166412 0.24542779 0.94050002
-0.070641801 0.25015509 0.94800007
-0.064407907 0.25331756 0.94709516
-0.055341642 0.25525677 0.94334787
-0.048619933 0.25875694 0.94000006
-0.052569319 0.26458892 0.94677788
-0.04651542 0.26599962 0.94247055
-0.051786166 0.27194461 0.9476667
-0.044607729 0.27473584 0.94520682
-0.17316788 0.068517484 0.95845449
-0.16483968 0.067686692 0.95716679
-0.15498546 0.068065174 0.95562518
-0.14450453 0.067635745 0.95725
-0.13520898 0.067182027 0.95795435
-0.1255701 0.067020886 0.95517391
-0.115445 0.067483306 0.95536846
-0.10505343 0.067114823 0.95590919
-0.095118716 0.068088785 0.95593756
-0.0854901 0.066546619 0.95457911
-0.075501129 0.066409402 0.9552691
-0.065625012 0.066815354 0.95447624
-0.055087734 0.067181349 0.95472723
-0.045124974 0.066561088 0.95536005
-0.035215031 0.06576588 0.95548004
-0.02516651 0.065505013 0.9555999
-0.015194893 0.064608909 0.954579
-0.0046077971 0.064759418 0.95529157
0.0044498905 0.064347126 0.95432007
0.014719671 0.064376824 0.95550013
0.025956172 0.064635672 0.95510018
-0.17347883 0.075066611 0.95779991
-0.16533355 0.07500381 0.95337063
-0.15868279 0.071421154 0.95100003
-0.14286247 0.071014382 0.95300007
-0.13541825 0.07105165 0.95350003
-0.12922505 0.070865348 0.95100003
-0.097544074 0.070865348 0.95100003
-0.17196639 0.08433561 0.95830762
-0.16509193 0.0855643 0.95524138
-0.15866752 0.087142788 0.95185721
-0.16475792 0.095223509 0.95685172
-0.15791607 0.095349774 0.95240015
-0.16346401 0.10402902 0.95783329
-0.15641697 0.1056159 0.9531002
-0.16099852 0.11139584 0.95900005
-0.154339 0.11488095 0.95591664
-0.14842142 0.11586623 0.95220011
-0.15212539 0.12413037 0.95799989
-0.14540602 0.12630929 0.9529525
-0.13839586 0.12922505 0.95100003
-0.15048948 0.13115284 0.95900005
-0.14489724 0.13539039 0.9565925
-0.13870242 0.13703501 0.95228583
-0.14370812 0.14244704 0.95862508
-0.13595296 0.14554362 0.95384216
-0.13342491 0.15401384 0.95720005
-0.12720507 0.15600102 0.95315403
-0.13073248 0.16183925 0.95900005
-0.12481104 0.16436037 0.95547825
-0.11855356 0.16790919 0.95100003
-0.12229437 0.17353274 0.95809996
-0.11630194 0.17549297 0.95370007
-0.12022343 0.18075551 0.95900005
-0.11446977 0.18465291 0.95608687
-0.10821924 0.1883387 0.95200008
-0.11280119 0.19462027 0.95843744
-0.10547493 0.19545305 0.95392013
-0.11265693 0.20093288 0.95900005
-0.10490199 0.20479326 0.95666659
-0.097668208 0.20718877 0.95220006
-0.10273864 0.21419652 0.95862484
-0.095284082 0.21515019 0.95492601
-0.089206971 0.21843201 0.95100003
-0.093345523 0.22259191 0.95733333
-0.086836204 0.22595981 0.954
-0.084464557 0.23493822 0.95624989
-0.076366447 0.23716201 0.95200008
-0.08305113 0.24422398 0.95819992
-0.07632567 0.24462104 0.95442861
-0.081550166 0.25221699 0.95900005
-0.075086176 0.25472879 0.95692843
-0.066162907 0.25761038 0.95185721
-0.071947448 0.26175281 0.958
-0.065002903 0.26452497 0.95719218
-0.057719927 0.26534089 0.95221436
-0.062003352 0.27449617 0.95900005
-0.056195613 0.27554649 0.95446163
-0.04918889 0.27929285 0.95100003
-0.054839276 0.28438771 0.95759988
-0.046500739 0.28639218 0.9528001
-0.052335031 0.29299209 0.95900005
-0.04540474 0.29478416 0.95593107
-0.08053498 0.05849383 0.96700007
-0.077991769 0.05849383 0.96700007
-0.013269812 0.058433343 0.96600008
-0.0045688357 0.058019899 0.96480006
0.0044798921 0.058665656 0.96585715
0.013563787 0.05849383 0.96700007
0.025125414 0.058724537 0.96616673
-0.18423249 0.06602563 0.96559107
-0.17567949 0.064604528 0.96365225
-0.16519457 0.063372582 0.963875
-0.15524621 0.064583838 0.96392858
-0.14525673 0.063495539 0.96376926
-0.13530026 0.062574051 0.9645834
-0.12483657 0.062500544 0.96433336
-0.11491254 0.063296154 0.96423531
-0.10486889 0.063425854 0.96470004
-0.094921544 0.063589104 0.96447372
-0.084658936 0.061722372 0.96450001
-0.074208662 0.061361171 0.96413332
-0.06522125 0.062563188 0.96442854
-0.055749867 0.063035898 0.96469223
-0.044950206 0.061855365 0.9641819
-0.035794009 0.061159331 0.96450001
-0.024702188 0.061078589 0.96500003
-0.014534432 0.061003376 0.96380007
-0.0066331103 0.060895268 0.96285719
0.0061573307 0.060475595 0.96385723
0.015828466 0.061382443 0.96485716
0.023899607 0.061247196 0.96427286
0.035454154 0.060783681 0.96300006
-0.18400283 0.074125089 0.96552396
-0.17895958 0.075058445 0.96200007
-0.18178003 0.083871253 0.96635717
-0.17649637 0.085351095 0.96266663
-0.18056791 0.092403293 0.96700007
-0.17475152 0.094398618 0.96403855
-0.16951402 0.098672338 0.96200007
-0.17243902 0.10434569 0.9661001
-0.16805565 0.10575595 0.96249992
-0.17039508 0.11190124 0.96700007
-0.1650721 0.11506078 0.96473926
-0.15883154 0.11835059 0.96200007
-0.16152838 0.12474923 0.96670008
-0.15715995 0.12529074 0.96346664
-0.15433265 0.13506956 0.964261
-0.15162717 0.14273383 0.96625006
-0.14556123 0.14619572 0.96393746
-0.1432187 0.15263449 0.96666676
-0.1377065 0.15629141 0.96366668
-0.13449962 0.16494903 0.96489483
-0.12856025 0.16906925 0.96266675
-0.13182305 0.17293827 0.96700007
-0.12681325 0.17593744 0.9643333
-0.12401468 0.18438579 0.96542877
-0.11891282 0.18638109 0.96200007
-0.12263203 0.19395494 0.96676928
-0.11737247 0.19600388 0.96318752
-0.12122634 0.20091359 0.96700007
-0.11445956 0.2048533 0.96450019
-0.10879258 0.20999497 0.96200007
-0.11184382 0.21295534 0.96650004
-0.10737807 0.21630259 0.96316671
-0.10290664 0.22390056 0.96512502
-0.09661901 0.22675642 0.96393335
-0.10088066 0.23312758 0.96700007
-0.094689749 0.23520301 0.96557182
-0.088552102 0.23782563 0.96200007
-0.092847511 0.24367738 0.96657145
-0.087375619 0.24555498 0.96254539
-0.090707824 0.25482965 0.96700013
-0.08517278 0.25526163 0.96460736
-0.08269801 0.26318744 0.96583337
-0.075653002 0.26550665 0.96420002
-0.068311617 0.26846746 0.96200007
-0.072755739 0.27361941 0.96700007
-0.066003315 0.27542853 0.96326315
-0.064518869 0.28477684 0.96528578
-0.058191381 0.28842682 0.96200007
-0.061866105 0.29322562 0.96670008
-0.056206901 0.29535422 0.96459991
-0.051203292 0.3041679 0.96700013
-0.047774434 0.30550683 0.96355563
-0.050016463 0.31281483 0.96700007
-0.045048583 0.31541523 0.96544445
-0.042810701 0.32171604 0.96700007
-0.19418122 0.057239756 0.9729445
-0.18554379 0.05790098 0.97608346
-0.17517619 0.058106568 0.97475004
-0.16479054 0.058001604 0.97630787
-0.15469967 0.057516456 0.9756251
-0.14512101 0.0582808 0.97636372
-0.13511974 0.058150619 0.97549993
-0.12476514 0.057741843 0.9747858
-0.114775 0.057157274 0.97488236
-0.10466041 0.057163291 0.97327775
-0.094862334 0.057364468 0.97487503
-0.085070439 0.05696049 0.97323543
-0.074730158 0.056550026 0.97510529
-0.065206975 0.05710325 0.97531581
-0.054999121 0.057809465 0.97592843
-0.044597074 0.057320684 0.97593749
-0.035570398 0.05742079 0.97380024
-0.025114056 0.057664443 0.97350025
-0.015339498 0.05626848 0.97489488
-0.0055559478 0.054573882 0.97525007
0.0056681088 0.055085897 0.97676206
0.015200874 0.055653792 0.97436029
0.025106503 0.056078903 0.97420007
0.035556611 0.057123419 0.97646672
0.044448204 0.055977207 0.97574085
-0.20121972 0.067073241 0.9734
-0.19521138 0.064337112 0.97088206
-0.18623124 0.061840001 0.97075015
-0.17517553 0.060376037 0.97000009
-0.16450725 0.060672347 0.97085714
-0.15484563 0.061257526 0.97050005
-0.14569247 0.060917925 0.97187507
-0.13435793 0.060376037 0.97000009
-0.12330317 0.060376033 0.97000003
-0.11564986 0.060376037 0.97000009
-0.10493524 0.060376037 0.97000009
-0.095241062 0.060376037 0.97000009
-0.087587766 0.060376033 0.97000003
-0.063777491 0.060376037 0.97000009
-0.053838227 0.060645673 0.97042859
-0.04795396 0.061005186 0.97100002
-0.031463567 0.060376033 0.97000003
-0.028912466 0.060376033 0.97000003
-0.018708067 0.060376033 0.97000003
0.036565766 0.060376033 0.97000003
0.042276084 0.060438275 0.97100002
-0.20135148 0.074092798 0.97425002
-0.19530804 0.075390324 0.97443759
-0.18814363 0.07632041 0.97000015
-0.19477151 0.084310681 0.97673094
-0.18657809 0.085893497 0.97125012
-0.19162442 0.09131097 0.97800004
-0.18514921 0.095210388 0.97363639
-0.17886047 0.098925985 0.97000003
-0.18339266 0.10461952 0.97549999
-0.1768741 0.10532817 0.97153336
-0.18227899 0.11128793 0.97800004
-0.17513929 0.11460965 0.97363627
-0.16865605 0.11933479 0.97000003
-0.17257194 0.1245072 0.97657156
-0.16649428 0.12540382 0.97143763
-0.1710473 0.13246521 0.97800004
-0.16444281 0.13451773 0.97303843
-0.15901856 0.13690902 0.97000003
-0.16183771 0.14257295 0.97675002
-0.15547308 0.14549246 0.97280008
-0.15340915 0.15443622 0.97686666
-0.14677539 0.15628169 0.97189474
-0.15089887 0.16118744 0.97800004
-0.14408998 0.16466559 0.97452182
-0.13818458 0.16794741 0.97000003
-0.14263588 0.17317308 0.97745454
-0.1359901 0.17571978 0.97239131
-0.14146771 0.18090717 0.97800004
-0.13455409 0.18459497 0.97433347
-0.12772508 0.18725073 0.97000009
-0.13209915 0.19390735 0.97672731
-0.12712595 0.19600728 0.97406667
-0.12475435 0.2049503 0.97599989
-0.11862615 0.20791465 0.97000003
-0.12211484 0.21437919 0.97750002
-0.11593968 0.21542051 0.97240001
-0.12089058 0.22120404 0.97800004
-0.11459925 0.22520903 0.97524142
-0.10728423 0.2262484 0.97054559
-0.11336277 0.23467515 0.97714299
-0.10515363 0.2351324 0.97135985
-0.11174519 0.24206696 0.9780001
-0.10509575 0.24487379 0.97460008
-0.097124361 0.24647877 0.97075009
-0.10225559 0.25271642 0.97718185
-0.095403343 0.25514278 0.97366661
-0.093843102 0.26402888 0.97692865
-0.086368687 0.26641238 0.97200012
-0.090882279 0.27286118 0.9780001
-0.084567495 0.27504328 0.97433323
-0.076669544 0.27647665 0.97037518
-0.082994394 0.28362128 0.97800004
-0.075108096 0.28533369 0.97349995
-0.068312787 0.28770736 0.97000009
-0.073895067 0.29398856 0.97589475
-0.066103145 0.29580489 0.97083348
-0.071162537 0.30179775 0.97800004
-0.064665377 0.30480975 0.97574079
-0.055952877 0.30547532 0.97089487
-0.061805878 0.31379026 0.97766674
-0.055207357 0.3150956 0.97370011
-0.047620535 0.3188875 0.97000003
-0.053645939 0.32417217 0.97566676
-0.045556031 0.32568488 0.97125006
-0.17745078 0.047975291 0.98900002
-0.11444707 0.049420331 0.98900002
-0.071962938 0.049420331 0.98900002
-0.067627817 0.049420331 0.98900002
-0.054622471 0.049420331 0.98900002
-0.032657877 0.049420331 0.98900002
-0.025577188 0.049420331 0.98900002
-0.01473063 0.048808999 0.98833328
-0.0057772328 0.048392147 0.98866677
0.0051095318 0.048537049 0.987091
0.014724603 0.0489306 0.98787504
0.025793945 0.048770063 0.98899996
0.034659363 0.048696734 0.9884001
0.044994041 0.049320389 0.98700005
0.055524457 0.048786797 0.98788899
-0.19063556 0.053033948 0.98100013
-0.18428393 0.053921837 0.98260003
-0.17492788 0.053665955 0.98741674
-0.16497056 0.05331374 0.98575008
-0.15498132 0.0530788 0.98415804
-0.14514098 0.053608295 0.98495477
-0.13509025 0.054347403 0.98594129
-0.1247718 0.053395085 0.98565006
-0.11506069 0.052728154 0.98406267
-0.10545279 0.052597731 0.98552948
-0.095169671 0.05300599 0.98588914
-0.085784964 0.052577201 0.9855715
-0.074371345 0.052571066 0.98561549
-0.064789347 0.052691698 0.98540008
-0.055103224 0.05319754 0.98520023
-0.045036953 0.052848328 0.98494732
-0.034155019 0.052951019 0.98379993
-0.025298409 0.053181961 0.98383343
-0.016019894 0.052114014 0.98378581
-0.0044920398 0.051818896 0.98520011
0.0039201612 0.051574007 0.98233342
0.016575903 0.051443785 0.98212504
0.025651347 0.052162226 0.9842729
0.034108177 0.052886955 0.98366672
0.044322073 0.051424388 0.98175001
0.055023666 0.051735207 0.98209095
-0.20038232 0.08772102 0.98100007
-0.19780231 0.088581033 0.98100007
-0.20053554 0.093815386 0.98175001
-0.19541702 0.095175996 0.98133361
-0.20097598 0.10629705 0.98900002
-0.19479546 0.10462628 0.98628563
-0.1880976 0.10666078 0.98228568
-0.19346862 0.11292893 0.98881823
-0.18590894 0.11570422 0.98457164
-0.17916875 0.11896805 0.98100013
-0.19247918 0.12225029 0.98900002
-0.18482448 0.12373129 0.98817402
-0.17686093 0.12661476 0.98250008
-0.17506941 0.1351517 0.98431253
-0.16942197 0.1384616 0.98100007
-0.17219006 0.14338475 0.98824996
-0.16578795 0.14587812 0.9852106
-0.16296616 0.15499957 0.98773348
-0.15781754 0.15495141 0.98133332
-0.16121228 0.1620793 0.98866671
-0.15467803 0.16540265 0.98421752
-0.14878173 0.16856197 0.98100007
-0.15405506 0.1742065 0.98810536
-0.14677948 0.1760678 0.98268753
-0.15172908 0.18120788 0.98900002
-0.14560065 0.18535064 0.98584622
-0.1384616 0.18834218 0.98100007
-0.14375937 0.19445838 0.98815805
-0.13684548 0.19584559 0.98250002
-0.14190282 0.2008604 0.98900002
-0.13531461 0.20485774 0.9852609
-0.1290015 0.20640239 0.98100001
-0.13347721 0.21450344 0.9879446
-0.12684385 0.21473318 0.98160005
-0.13141596 0.22381584 0.98899996
-0.12553933 0.2253601 0.98492312
-0.11954139 0.22876266 0.98100007
-0.12412585 0.23414192 0.98814297
-0.11803637 0.23585774 0.98100001
-0.12051624 0.24103248 0.98900002
-0.11531382 0.2457114 0.98431259
-0.11322581 0.25343874 0.9872728
-0.10606217 0.25590968 0.98170596
-0.11011196 0.26097402 0.98900002
-0.10429319 0.26457223 0.98526108
-0.097396135 0.26638809 0.98100001
-0.10144173 0.27137831 0.98900002
-0.095371187 0.2746768 0.98338109
-0.093354657 0.28455821 0.98780006
-0.086509988 0.28627637 0.98220003
-0.091037452 0.29131985 0.98900002
-0.085490793 0.2954334 0.98772752
-0.078260906 0.29584342 0.98100001
-0.081913322 0.30251509 0.98874998
-0.075569339 0.30524033 0.98559099
-0.0688008 0.3087436 0.98100007
-0.072893299 0.31518021 0.98837519
-0.066397704 0.31542456 0.98216683
-0.17231353 0.04608088 0.99439985
-0.16514923 0.047172051 0.99500006
-0.1558914 0.048926372 0.99466676
-0.14423646 0.049491588 0.99542856
-0.13494903 0.04884747 0.99663645
-0.12514538 0.048898473 0.99445456
-0.11444147 0.047973484 0.995
-0.10445593 0.048190366 0.99499995
-0.093975224 0.048232514 0.99521428
-0.085586861 0.049080182 0.99620008
-0.075168803 0.048783679 0.99566674
-0.064125672 0.048040189 0.99361539
-0.054371659 0.048198339 0.99309087
-0.045599196 0.048057783 0.99464709
-0.035217322 0.04782743 0.99476922
-0.02445117 0.047151588 0.99607146
-0.01481882 0.046027102 0.99440002
-0.0048444113 0.044557508 0.99449986
0.0047975588 0.045028344 0.995
0.015407051 0.046070952 0.99475002
0.023895128 0.045870006 0.99479991
0.034861654 0.045691244 0.99414283
0.045350652 0.046716508 0.99478573
0.054691147 0.045815039 0.99550003
0.064548969 0.046227511 0.995
-0.14088383 0.051309545 0.99200004
-0.13479626 0.051309545 0.99199998
-0.12957835 0.051309545 0.99200004
-0.09479221 0.051309545 0.99200004
-0.080877759 0.051309545 0.99200004
-0.078268796 0.051309545 0.99200004
-0.20262922 0.10870667 0.99200004
-0.20134556 0.11331332 0.99425006
-0.19673054 0.11578709 0.99217641
-0.19444752 0.12456325 0.99358815
-0.18711749 0.12837183 0.99275005
-0.19291839 0.13079953 0.99800003
-0.18366335 0.13444519 0.99540001
-0.17827894 0.13827488 0.99200004
-0.18110706 0.14173597 0.99800003
-0.17613818 0.14551522 0.99392849
-0.1695824 0.14871071 0.99200004
-0.17257199 0.15388358 0.99620008
-0.16811855 0.15524188 0.99259996
-0.1706081 0.16010913 0.99800003
-0.16453303 0.16534331 0.99439996
-0.16282099 0.17377566 0.99609095
-0.15822144 0.17661664 0.99242866
-0.16010913 0.18110706 0.99800003
-0.15460683 0.18527965 0.99409997
-0.1524186 0.19416372 0.99523079
-0.14820591 0.1972218 0.99250007
-0.15136001 0.20123008 0.99800003
-0.1450114 0.20544988 0.99442852
-0.14266934 0.21428291 0.99623537
-0.13776481 0.2163638 0.99250007
-0.14146431 0.22411337 0.99762505
-0.13609354 0.22481616 0.9932
-0.13422248 0.23348024 0.99416667
-0.12791029 0.23723012 0.99254537
-0.13211191 0.24191354 0.99800003
-0.12516984 0.2450334 0.99437505
-0.1191425 0.2495905 0.99200004
-0.12207437 0.25288913 0.99699998
-0.11732218 0.25613025 0.99374992
-0.11326626 0.26465687 0.99517643
-0.10870667 0.26872289 0.99200004
-0.11194716 0.27374563 0.99762505
-0.10533572 0.27531996 0.9936958
-0.10224443 0.28414226 0.99575001
-0.097304545 0.28592268 0.99200004
-0.094930314 0.29496655 0.99436837
-0.09219338 0.30494812 0.99733329
-0.08631441 0.30537999 0.99268186
-0.090116076 0.31059423 0.99800003
-0.083534524 0.31404844 0.99599999
-0.077748857 0.31592286 0.99274993
-0.16632269 0.038938642 1.0049
-0.042374559 0.039726149 1.0070001
-0.038843349 0.039726149 1.0070001
-0.01324205 0.039726149 1.0070001
-0.0052941903 0.039686702 1.006
0.016773263 0.039726149 1.0070001
0.021187279 0.039726149 1.0070001
0.03707774 0.039726149 1.0070001
0.043257367 0.039726149 1.0070001
0.053851001 0.039726149 1.0070001
0.065297194 0.039706424 1.0065001
0.074102223 0.039696563 1.00625
-0.16428733 0.042507946 1.002154
-0.15515842 0.045682319 1.0043334
-0.14509717 0.045487072 1.0037
-0.13528626 0.044989299 1.0040001
-0.12490888 0.04551148 1.0028461
-0.11478473 0.04476092 1.0042307
-0.10515372 0.044737004 1.0045999
-0.095333531 0.044168476 1.0041765
-0.084786475 0.044360403 1.0042608
-0.075240195 0.044986203 1.0038127
-0.064657293 0.044653524 1.0044285
-0.054595143 0.044138461 1.0034705
-0.044601399 0.043281797 1.0025002
-0.035261557 0.043438476 1.0031
-0.024587663 0.043014571 1.0038235
-0.015397335 0.042665616 1.0035001
-0.005270082 0.041265137 1.0015
0.0061729015 0.042010453 1.0053333
0.01479646 0.04247522 1.0037273
0.024615265 0.042194188 1.0027499
0.035145342 0.042173583 1.0022502
0.045102369 0.04296368 1.0031428
0.054462034 0.042163283 1.0020002
0.065037705 0.042184327 1.0025001
0.075152092 0.042246804 1.0020909
-0.19744726 0.12899888 1.001
-0.20039636 0.13506891 1.0070001
-0.19510663 0.13533966 1.0039999
-0.18749464 0.1377181 1.0020001
-0.19377533 0.14191063 1.0070001
-0.18572007 0.14523061 1.0039999
-0.17989638 0.14830482 1.001
-0.18252358 0.15466064 1.0058
-0.17711496 0.15565304 1.0022857
-0.18097468 0.16243581 1.0070001
-0.1749513 0.1646917 1.0041304
-0.16911636 0.16736129 1.0016
-0.17236736 0.17391227 1.0070001
-0.16708969 0.17558049 1.0022501
-0.17082244 0.18274029 1.0070001
-0.16462849 0.18515797 1.0037498
-0.15883534 0.18779427 1.001
-0.16309568 0.1938826 1.0056154
-0.1577165 0.19564621 1.0022501
-0.15481506 0.20521067 1.0038635
-0.15337875 0.21472727 1.0049545
-0.14747794 0.2161897 1.002
-0.15147296 0.2235335 1.0065001
-0.14641289 0.22528744 1.0032105
-0.14380786 0.23376104 1.0044615
-0.13839523 0.23751567 1.0018572
-0.14095426 0.24394798 1.0070001
-0.13545522 0.24576628 1.0026499
-0.1332496 0.25386935 1.0048
-0.12657273 0.25615224 1.0022631
-0.13153769 0.26042697 1.0070001
-0.12392709 0.26465458 1.0043912
-0.1179425 0.26632184 1.0015
-0.12184926 0.27255556 1.006143
-0.11643793 0.27578253 1.0033684
-0.11336546 0.28485557 1.0046428
-0.10758217 0.28546971 1.0014617
-0.11079182 0.2930907 1.0070001
-0.10470601 0.29506874 1.0044286
-0.099162392 0.2974872 1.001
-0.10234749 0.30399612 1.0056363
-0.097133577 0.30545473 1.0024118
-0.16270734 0.035554644 1.0107502
-0.15492035 0.0366988 1.0139647
-0.14585114 0.038820289 1.0157001
-0.13488875 0.038505059 1.015625
-0.12614493 0.038546253 1.0173334
-0.11449717 0.038534652 1.0163751
-0.10502052 0.038005691 1.0161667
-0.095260076 0.038690265 1.0155385
-0.084682547 0.038510505 1.0154001
-0.074806705 0.038290314 1.0158335
-0.064971626 0.038045585 1.01525
-0.055172849 0.038483858 1.0150626
-0.045359809 0.037969109 1.0146155
-0.035879921 0.038854156 1.015
-0.02240565 0.038196366 1.0133333
-0.01511417 0.037335668 1.0140715
-0.00549964 0.036600783 1.0154707
0.005336599 0.037352029 1.0146252
0.01465062 0.037182234 1.0148001
0.025197191 0.037065424 1.0134091
0.034806427 0.036666628 1.01285
0.044883933 0.036063243 1.0147729
0.055452552 0.037183292 1.0148
0.065308943 0.035804465 1.0136001
0.074818157 0.036202565 1.0147998
0.085645624 0.03756668 1.0138183
-0.15431544 0.042640384 1.0110002
-0.14469807 0.041396201 1.0108572
-0.13400865 0.041886006 1.0104285
-0.1242296 0.041726232 1.0127692
-0.11543452 0.041541409 1.0121819
-0.10534485 0.041879632 1.0116668
-0.095331661 0.041615367 1.01
-0.080574431 0.042500801 1.01
-0.07490766 0.041969541 1.01
-0.066154517 0.041868348 1.0100001
-0.056667734 0.041615367 1.01
-0.032955654 0.040081199 1.016
-0.027017698 0.040081199 1.016
-0.20159037 0.13942595 1.013
-0.19922251 0.13901304 1.01
-0.200406 0.1469644 1.016
-0.19505538 0.14638111 1.0105295
-0.19432741 0.15528572 1.0141742
-0.18751214 0.155926 1.0110911
-0.19296388 0.16439673 1.0183572
-0.18540356 0.16497783 1.0128502
-0.17885754 0.16911776 1.01
-0.19027787 0.17151809 1.0190001
-0.1841909 0.17471479 1.0158638
-0.17601249 0.17580418 1.0107061
-0.1824351 0.1836842 1.0181
-0.17555085 0.18523329 1.0127275
-0.16911776 0.18859729 1.01
-0.17518365 0.1946231 1.0161306
-0.16774386 0.19626872 1.0115
-0.17238551 0.20440379 1.0176667
-0.16436304 0.20548628 1.0125002
-0.15849257 0.2098477 1.01
-0.1712203 0.21231318 1.0190001
-0.16431761 0.21475399 1.0144402
-0.15813839 0.21622281 1.01
-0.16317286 0.22364403 1.0170909
-0.15648098 0.22540121 1.0124707
-0.15463011 0.23486577 1.0151254
-0.14732589 0.23688285 1.0103334
-0.15309973 0.24414743 1.0170588
-0.145869 0.24567509 1.0125002
-0.15156718 0.25161943 1.0190001
-0.14470139 0.2546764 1.0155717
-0.13783906 0.2566193 1.011125
-0.14168108 0.26317304 1.0190001
-0.13483018 0.26544943 1.0142274
-0.12838784 0.26740086 1.01
-0.13311037 0.27459818 1.0172
-0.12607245 0.2759949 1.0122942
-0.13131852 0.28229016 1.0190001
-0.12553306 0.28506663 1.0155202
-0.11811662 0.28676665 1.0113333
-0.12369401 0.29416466 1.0175002
-0.11552324 0.29514843 1.0128502
-0.1089083 0.29839104 1.01
-0.12059865 0.30104995 1.0190001
-0.11472667 0.30461881 1.0157503
-0.10718874 0.30584317 1.0116003
-0.14329292 0.029740041 1.028
-0.00405546 0.029740039 1.028
0.0054050884 0.029725574 1.0275
0.015320626 0.029740039 1.028
0.026135186 0.029740039 1.028
0.035127856 0.029722679 1.0273999
0.045516048 0.029110303 1.027
0.054503337 0.028900392 1.0266666
0.06278453 0.029740041 1.028
0.096334271 0.029711107 1.027
-0.15141611 0.031358365 1.0220001
-0.14514464 0.034120943 1.0243182
-0.1355101 0.033818733 1.025375
-0.1251629 0.035676744 1.0244546
-0.11501824 0.035341647 1.0250001
-0.10408459 0.033394281 1.025
-0.094800211 0.034817144 1.0250001
-0.085297614 0.034327056 1.0259999
-0.075047523 0.033821397 1.0256922
-0.064580925 0.034045354 1.0244546
-0.055031072 0.034635123 1.02625
-0.044598613 0.033696283 1.0258824
-0.03478004 0.035494175 1.0251501
-0.026250999 0.035140306 1.0251578
-0.015590787 0.033127625 1.026
-0.005180696 0.032518134 1.0238461
0.0053836103 0.032300346 1.0235001
0.015399161 0.032740653 1.02325
0.025123514 0.032300346 1.0235001
0.035177223 0.03218545 1.0230002
0.045725837 0.031829353 1.0227501
0.054943897 0.033042006 1.0226431
0.063708022 0.031852372 1.0235001
0.075751014 0.032236591 1.0246667
0.084533937 0.03269178 1.0250001
0.094165392 0.031986352 1.0230001
-0.20158949 0.16843922 1.0220001
-0.19762172 0.16690329 1.0220002
-0.20142995 0.17445469 1.02575
-0.19503286 0.17521632 1.0235652
-0.18904616 0.17739877 1.0220001
-0.19399346 0.18374805 1.0274374
-0.18710659 0.1850557 1.023286
-0.19015601 0.19105724 1.028
-0.18399701 0.19467628 1.0248421
-0.18242422 0.20457758 1.0266153
-0.17753124 0.20643941 1.0233334
-0.18114388 0.21268634 1.028
-0.17568392 0.21513079 1.0253334
-0.16933517 0.21950856 1.0220001
-0.17234102 0.22420828 1.0271
-0.16727908 0.22599982 1.0233637
-0.17032932 0.23341425 1.028
-0.16447341 0.23537046 1.0242798
-0.16347626 0.24448025 1.0266874
-0.15763772 0.2466597 1.0231252
-0.16131718 0.25233972 1.028
-0.15575863 0.25526464 1.0256666
-0.1496242 0.25803456 1.0220001
-0.15193143 0.2645283 1.0275
-0.14542472 0.26587987 1.0235883
-0.15050262 0.27126521 1.028
-0.14439565 0.27463329 1.0264999
-0.13801257 0.27632526 1.0230002
-0.14256538 0.28310338 1.027625
-0.13590951 0.28528497 1.0247144
-0.13378665 0.2938166 1.0264999
-0.1287813 0.29551193 1.0225
-0.13127673 0.30070484 1.028
-0.14226493 0.028380681 1.031
-0.13714223 0.029061498 1.036
-0.10390994 0.029124813 1.0346667
-0.094860047 0.028976142 1.0359092
-0.084921509 0.029131077 1.0355455
-0.075359926 0.02905282 1.0357001
-0.052711044 0.028777458 1.0366668
-0.044977542 0.029131077 1.0355456
-0.03539481 0.028549798 1.0352309
-0.025515189 0.029146535 1.0354445
-0.014311179 0.028128661 1.035154
-0.0055116708 0.027708061 1.0350771
0.0052589481 0.02738356 1.0344002
0.014928916 0.027135782 1.0350001
0.025380706 0.027191347 1.034
0.035623662 0.026422417 1.0343572
0.044710316 0.026045078 1.0347859
0.055050161 0.026293237 1.0342858
0.065400265 0.02784049 1.0340716
0.074936971 0.027998375 1.0345627
0.08493264 0.028004531 1.0343335
0.094393641 0.02683657 1.0347649
0.10472885 0.026291836 1.0343127
-0.13277087 0.030847268 1.0350001
-0.12503169 0.032000083 1.0345715
-0.11480498 0.031610187 1.0352502
-0.10755736 0.031634517 1.031
-0.094903551 0.031634517 1.031
-0.085002922 0.031649858 1.0315001
-0.073781364 0.031233223 1.0327501
-0.065841056 0.031558622 1.0370001
-0.056055494 0.03108627 1.0353751
-0.048807539 0.031634517 1.031
-0.037509497 0.032086439 1.031
-0.024139017 0.031382326 1.0326668
-0.018141303 0.030831929 1.0345001
-0.20155706 0.17986482 1.031
-0.20155706 0.18167251 1.031
-0.19627666 0.18768491 1.0317501
-0.19412512 0.19480398 1.0341251
-0.18813683 0.1980857 1.0317501
-0.1933631 0.20464168 1.0374668
-0.18782161 0.20511313 1.033182
-0.19182377 0.21238932 1.0380001
-0.18555483 0.21528678 1.0356252
-0.17986482 0.21873009 1.031
-0.18222041 0.22459252 1.0372001
-0.17676575 0.22608566 1.03225
-0.18108602 0.23204489 1.0380001
-0.17506489 0.23523991 1.034143
-0.17337327 0.24362811 1.0354002
-0.16786727 0.24643864 1.0318573
-0.17016625 0.25115448 1.0380001
-0.16541015 0.25524518 1.0350715
-0.15998027 0.25849921 1.031
-0.16283435 0.26407236 1.0367694
-0.15686047 0.26527157 1.032091
-0.16106646 0.27117404 1.0380001
-0.15476109 0.2744996 1.0340478
-0.14913414 0.27747989 1.031
-0.15227437 0.28409699 1.0370001
-0.14675209 0.28485915 1.0327274
-0.14405303 0.29339996 1.0354738
-0.13714996 0.29660484 1.0315001
0.039468411 0.01927527 1.0470001
0.04313989 0.01927527 1.0470001
-0.13409442 0.025913388 1.0434
-0.12528099 0.026806274 1.0442141
-0.11474821 0.026653074 1.044
-0.10547639 0.025847638 1.042909
-0.095025182 0.025582669 1.0422499
-0.085228652 0.025154196 1.0434999
-0.074952587 0.025948236 1.0447501
-0.065230571 0.026664253 1.0437858
-0.055994015 0.026532227 1.0437
-0.043747418 0.025257993 1.044
-0.034314431 0.024475271 1.0438125
-0.024718711 0.025630005 1.04425
-0.014377436 0.023531074 1.0443529
-0.0050044851 0.023197206 1.0456153
0.0044626165 0.02311885 1.0445625
0.014186219 0.023106523 1.044
0.024006641 0.02354902 1.04325
0.034543835 0.022441788 1.0433075
0.044837032 0.021958133 1.0437
0.054939821 0.023499927 1.0445
0.064993784 0.022881877 1.0442002
0.075049683 0.022877494 1.044
0.085099094 0.022742176 1.0437857
0.095338963 0.023046106 1.0423332
0.10540383 0.021996005 1.0455
-0.12228974 0.03011613 1.041
-0.11863931 0.03011613 1.041
-0.063882701 0.03011613 1.041
-0.19803637 0.19986159 1.041
-0.20125109 0.20531885 1.044
-0.19773217 0.20594566 1.041
-0.20124145 0.21467464 1.0450001
-0.19556476 0.21585111 1.0413336
-0.18891028 0.21993901 1.041
-0.20043756 0.22057284 1.044
-0.19506742 0.22383603 1.045875
-0.18733551 0.22571611 1.0423846
-0.18527363 0.23478797 1.0436251
-0.17978416 0.2381912 1.041
-0.18248284 0.24422587 1.046
-0.17752092 0.24572968 1.0419999
-0.18082039 0.25057852 1.0470001
-0.17460445 0.25508356 1.0444739
-0.16883285 0.25826862 1.041
-0.1724976 0.263993 1.046
-0.16763763 0.26577967 1.0418183
-0.16543241 0.27463031 1.0438334
-0.15970674 0.27743345 1.041
-0.16184932 0.28346577 1.0456667
-0.15642856 0.28569022 1.0423636
-0.15301532 0.29329041 1.0440001
-0.12530197 0.018779956 1.0535556
-0.11490295 0.01915049 1.057
-0.10100339 0.019459371 1.057
-0.075057566 0.019459371 1.057
-0.065791205 0.019459371 1.057
-0.042504307 0.019404139 1.054
-0.035112251 0.019404141 1.054
-0.025529116 0.019071592 1.0526667
-0.014411435 0.018657833 1.0537001
-0.0046176054 0.017695047 1.054
0.0047693592 0.017994899 1.0528334
0.014515639 0.017554581 1.0541178
0.024983685 0.018505119 1.0555
0.035292085 0.017675763 1.0539334
0.045200668 0.018078884 1.0523001
0.054830909 0.018085634 1.0518463
0.064833663 0.017533116 1.05275
0.07507176 0.018198725 1.0524546
0.084689774 0.018633112 1.0523001
0.095607519 0.018518925 1.0562501
0.10542606 0.017907497 1.0530667
0.11503223 0.017687561 1.0536155
-0.13224517 0.021785164 1.0500001
-0.12485218 0.022660431 1.0508001
-0.11528168 0.022132328 1.052
-0.1055387 0.022212343 1.0518183
-0.095092423 0.022257008 1.0531112
-0.084511369 0.021956293 1.0524
-0.074702516 0.022501228 1.052
-0.064353406 0.022348391 1.0521538
-0.054345176 0.023084994 1.0534616
-0.046223029 0.022647513 1.0521111
-0.034979001 0.021171497 1.0500001
-0.024657905 0.021998683 1.0504446
-0.01874138 0.021812052 1.0513334
-0.0018409999 0.021171499 1.0500001
0.018410001 0.021171499 1.0500001
0.024853498 0.021171499 1.0500001
0.0303765 0.021171499 1.0500001
0.056150496 0.021171499 1.0500001
0.093890995 0.021171499 1.0500001
0.1003345 0.021171499 1.0500001
-0.1968029 0.2280999 1.0500001
-0.19482049 0.23501125 1.0516
-0.18870249 0.2384095 1.0500001
-0.1937529 0.24401222 1.0543125
-0.18694054 0.24592051 1.0512309
-0.19181378 0.25111854 1.057
-0.18517065 0.25498393 1.05345
-0.1794975 0.25681952 1.0500001
-0.1824224 0.26475263 1.0552
-0.17694581 0.2650356 1.0503335
-0.18069415 0.27150455 1.057
-0.1743075 0.27509373 1.0526111
-0.1684515 0.2789115 1.0500001
-0.17246881 0.28430623 1.0543001
-0.1661807 0.28600696 1.0514287
0.025255891 0.0084186299 1.067
-0.11436374 0.015972555 1.0630715
-0.10557387 0.017052509 1.0635295
-0.095079288 0.018092997 1.064
-0.085081309 0.017477721 1.0635626
-0.075166278 0.017466651 1.0638002
-0.064542755 0.017105011 1.0644169
-0.055008788 0.017711181 1.0635334
-0.045580015 0.016945297 1.0635881
-0.034516998 0.016792025 1.0642002
-0.024496807 0.016559685 1.064375
-0.014692933 0.014976029 1.0627693
-0.0050780424 0.013580347 1.0644445
0.004866669 0.014388632 1.062889
0.014896903 0.013034426 1.0621668
0.025164101 0.013043044 1.0631
0.03446576 0.01262283 1.0625554
0.044848923 0.013559471 1.0641538
0.055290747 0.014520732 1.0638572
0.06454283 0.01403105 1.067
0.075570643 0.013991819 1.0642501
0.084829189 0.013978739 1.0633335
0.094875388 0.014289472 1.0633333
0.10458087 0.013419136 1.0643847
0.1152576 0.013313219 1.0641818
0.12490895 0.013978723 1.0633125
-0.095714465 0.021373134 1.0600001
-0.047392599 0.021373134 1.0600001
-0.19607526 0.24904346 1.0600001
-0.19440024 0.25647223 1.0621113
-0.18864113 0.25926539 1.0600001
-0.19479159 0.26464936 1.0645714
-0.18750031 0.26618257 1.0609001
-0.19300489 0.27251419 1.067
-0.1858034 0.27526662 1.0640453
-0.17872895 0.27785072 1.0600001
-0.18343475 0.28445819 1.0654616
-0.17814894 0.28529131 1.0619092
-0.105796 0.0063331649 1.0761428
-0.040599309 0.0084975297 1.077
-0.035878457 0.0084975297 1.077
-0.029269271 0.0084975297 1.077
-0.012262814 0.0080175549 1.076
-0.0052578705 0.0079534957 1.0764287
0.0047134859 0.0075438917 1.0757999
0.015388325 0.0078505492 1.0747778
0.025173701 0.0075257453 1.0735
0.034481637 0.0081486171 1.0726668
0.043431818 0.0084975297 1.077
0.055706032 0.0080254441 1.077
0.065124243 0.0075502032 1.0766
0.0741698 0.0076582674 1.077
0.085556529 0.0082187494 1.0758572
0.095184088 0.0075375787 1.075
0.1046875 0.0075438917 1.0758001
0.11573892 0.0070048166 1.075857
0.12588176 0.0059334342 1.0758235
0.13493389 0.0068148784 1.0726249
-0.11162597 0.0112564 1.0700001
-0.10475784 0.011978446 1.0717499
-0.09498734 0.012678456 1.0739999
-0.085235529 0.012554451 1.0743333
-0.074354209 0.012811809 1.0736153
-0.064925939 0.01222833 1.0733334
-0.055174168 0.012113176 1.0735624
-0.044431571 0.012091571 1.0722667
-0.03481238 0.012228388 1.0732666
-0.025405334 0.012228798 1.0733334
-0.015671512 0.011436921 1.0724167
-0.0046912939 0.010858519 1.0704287
0.0042758929 0.011161816 1.071
0.015008534 0.010318368 1.0700001
0.046885259 0.010880561 1.0727143
0.05542155 0.011270866 1.0715001
0.06481503 0.011270865 1.0715001
0.074220054 0.010959794 1.0716667
0.085361034 0.010318367 1.0700001
0.094741367 0.010318367 1.0700001
0.10430001 0.010335725 1.0718
0.11449134 0.010323188 1.0705
0.12475844 0.010318367 1.0700001
0.13507679 0.010318367 1.0700001
-0.193729 0.27697846 1.0710001
-0.10358343 -0.00095030665 1.0840001
-0.098831892 -0.00095030665 1.0840001
0.10596657 -0.0020964607 1.087
0.11202455 -0.001587351 1.086
-0.10286456 0.0030515792 1.080889
-0.095333301 0.0051706764 1.0838888
-0.085190296 0.0071371621 1.08575
-0.075070538 0.006648114 1.0839334
-0.065337755 0.0071158302 1.08275
-0.054722298 0.0068811756 1.0832499
-0.0451148 0.0068032988 1.0834166
-0.034623731 0.0064789318 1.0820833
-0.025015097 0.0063930624 1.0836666
-0.015080255 0.0056959772 1.0836874
-0.0043467637 0.0042062467 1.0844285
0.0049668038 0.0039064265 1.0844445
0.014765778 0.0049190563 1.0834545
0.025833175 0.0035326534 1.0856428
0.03496575 0.0039681541 1.0848823
0.044513941 0.0052888677 1.0836428
0.054727666 0.0048920019 1.0834615
0.065435499 0.0034845311 1.0844167
0.075445935 0.0040594446 1.0843636
0.084790476 0.0045084227 1.0836874
0.094786488 0.0029614316 1.0844116
0.10510657 0.0027293372 1.0838124
0.11459015 0.0028406337 1.0802667
0.12251592 0.0028404002 1.08
-0.083791792 0.0104148 1.08
-0.0766908 0.0104148 1.08
-0.093403377 -0.0022319935 1.090889
-0.086391844 -0.0028723988 1.0930001
-0.079821378 -0.00096170331 1.097
-0.054817088 -0.00096170331 1.097
-0.04904687 -0.00096170331 1.097
-0.036544725 -0.00096170331 1.097
-0.022760311 -0.00096170331 1.097
-0.014405036 -0.0009601253 1.0952001
-0.0086553302 -0.00096170331 1.097
0.0067319237 -0.00096170331 1.097
0.015588448 -0.0019203383 1.0942501
0.025159238 -0.0026394243 1.09325
0.035420842 -0.0015068648 1.0920001
0.04509889 -0.00095942395 1.0944
0.055192787 -0.001815674 1.0960001
0.064346015 -0.0019220918 1.0955
0.075285822 -0.0018339072 1.0946364
0.085672252 -0.0033315911 1.0937059
0.094425112 -0.0031093177 1.0907501
0.10109895 -0.0032489267 1.09
-0.092689969 0.00095556659 1.09
-0.084698275 0.0025742981 1.0912309
-0.07470829 0.0019139826 1.0925833
-0.06438189 0.0030318787 1.0934167
-0.054784253 0.0021754885 1.0928181
-0.044857789 0.0023929351 1.0925833
-0.035774849 0.0021742927 1.0921819
-0.024890319 0.0019128867 1.0920001
-0.015170592 0.0015026068 1.091143
-0.0052556163 0.00095556665 1.09
0.0044634021 0.0012761344 1.0923334
0.014345773 0.0016731183 1.0910001
0.0229336 0.00095556665 1.09
0.038222667 0.00095556665 1.09
0.045780785 0.0015026068 1.0911429
0.053702343 0.0015026068 1.0911429
0.064022966 0.00095556665 1.09
0.075489767 0.00095556665 1.09
0.084089868 0.00095556665 1.09
-0.08231803 -0.0052339635 1.1046999
-0.074683324 -0.0038829322 1.1063999
-0.065169469 -0.0037286023 1.1059999
-0.055201471 -0.0029091174 1.1046922
-0.045262743 -0.0030484833 1.1052141
-0.034670603 -0.0038804184 1.1054444
-0.025184881 -0.0034630839 1.1049999
-0.01452093 -0.0038727627 1.1042
-0.0045644902 -0.0030463536 1.1044998
0.0048421226 -0.0040714741 1.1046665
0.013706756 -0.005162471 1.1035833
0.02371252 -0.0065344539 1.1040001
0.034787301 -0.0049951002 1.1023332
0.045919392 -0.0045430218 1.1035384
0.054451078 -0.005981497 1.1058333
0.065253884 -0.0060788859 1.1049999
0.074274272 -0.0065356591 1.1038748
0.082320534 -0.0072430195 1.1015
-0.06563428 0.00096520997 1.1010001
-0.073845655 -0.01285113 1.1132501
-0.065646738 -0.013520231 1.1142106
-0.056570422 -0.011117888 1.1190001
-0.032717373 -0.011560253 1.1173999
-0.02746772 -0.01079089 1.1190001
-0.012752871 -0.010790889 1.1190001
-0.0046206596 -0.011340435 1.1178572
0.00490495 -0.01079089 1.1190001
0.014702928 -0.010783175 1.1182001
0.025480317 -0.010781247 1.118
0.034289766 -0.010775462 1.1173999
0.044647753 -0.011675686 1.1182729
0.056091387 -0.012591563 1.1168573
0.065631419 -0.012736974 1.1174001
0.073982529 -0.011609697 1.1167142
-0.073114 -0.0087736798 1.1120001
-0.064665273 -0.0084487293 1.1120001
-0.055167761 -0.0076508154 1.1138335
-0.045043133 -0.0078356462 1.117
-0.035106882 -0.0080454983 1.1123751
-0.023983262 -0.0079246769 1.1142223
-0.014655149 -0.0078169731 1.1143
-0.0048811045 -0.0078125028 1.1138002
0.0040428108 -0.0082267653 1.1132858
0.014628586 -0.0087784138 1.1126001
0.024912018 -0.0087914327 1.1142501
0.034869272 -0.0084737139 1.1151667
0.043947786 -0.0081398506 1.1141112
0.057028919 -0.0082862535 1.1120001
0.064340323 -0.0087736798 1.1120001
-0.060054295 -0.01476745 1.123
-0.054751996 -0.012331851 1.1252501
-0.044840295 -0.011580657 1.1241251
-0.035338435 -0.012814613 1.1242858
-0.024430748 -0.012380481 1.1246667
-0.014787175 -0.013014029 1.1245002
-0.0062443507 -0.013802677 1.1244999
0.0041893707 -0.013555897 1.1245
0.01522692 -0.013694898 1.1246667
0.024284303 -0.013532386 1.1243638
0.034467112 -0.013786899 1.1233001
0.045087073 -0.015522589 1.124125
0.053756222 -0.015876239 1.1240001
-0.052613053 -0.02292951 1.1371112
-0.04528334 -0.021812832 1.1366668
-0.035915278 -0.02095058 1.138
0.0069835265 -0.02095058 1.138
0.015629798 -0.021283129 1.138
